# This PCD file was generated using the MATLAB® pcwrite function
# from Computer Vision Toolbox®.
# .PCD v.7 - Point Cloud Data file format
VERSION .7
FIELDS x y z normal_x normal_y normal_z
SIZE 4 4 4 4 4 4
TYPE F F F F F F
COUNT 1 1 1 1 1 1
WIDTH 859
HEIGHT 1
VIEWPOINT 0 0 0 1 0 0 0
POINTS 859
DATA ascii
0.003670 0.017898 0.068638 -0.006658 0.003004 0.002678
0.099826 0.024479 0.046679 0.007160 0.006666 -0.000477
0.027069 0.025000 0.009084 -0.001884 0.007018 -0.003191
0.053504 0.003490 0.099816 0.000504 -0.005013 0.007159
0.026407 0.025000 0.079484 0.004070 0.007203 -0.005127
0.019991 0.010336 0.010051 -0.004312 -0.001204 -0.005741
0.032549 0.000000 0.010128 -0.000012 -0.007086 0.000098
0.053399 0.000000 0.099762 0.000488 -0.006956 0.007092
0.075659 0.011837 0.092873 0.003687 -0.000369 0.006161
0.028813 0.015842 0.080931 0.003915 0.001928 -0.005716
0.087370 0.025000 0.058905 -0.005713 0.007191 -0.001392
0.014338 0.010706 0.015048 -0.005125 -0.000998 -0.005023
0.011273 0.000000 0.045933 0.005223 -0.007180 0.000725
0.036689 0.025000 0.095019 -0.001201 0.007017 0.003583
0.080139 0.002987 0.072225 -0.005570 -0.005486 -0.004107
0.031551 0.007648 0.082587 0.003409 -0.002798 -0.006022
0.014272 0.000000 0.083983 -0.004663 -0.006968 0.004466
0.076357 0.025000 0.022849 -0.004476 0.007201 0.004662
0.019289 0.000000 0.079255 0.001141 -0.007108 -0.000716
0.071478 0.016344 0.080724 -0.003969 0.002217 -0.005678
0.066173 0.000000 0.009073 0.000242 -0.007076 -0.000390
0.014474 0.011527 0.085088 -0.005105 -0.000541 0.005042
0.013362 0.019282 0.057734 0.006770 0.003912 -0.001429
0.043182 0.000000 0.007448 -0.000165 -0.007095 0.000598
0.011722 0.025000 0.018375 -0.005273 0.006961 -0.004387
0.085817 0.000000 0.033672 -0.004313 -0.007170 0.001991
0.042890 0.001737 0.013248 0.001314 -0.006207 0.006792
0.020314 0.025000 0.081578 0.000055 0.007090 -0.000339
0.076632 0.007599 0.023696 -0.004922 -0.002827 0.004861
0.096107 0.018559 0.069219 0.006626 0.003371 0.002762
0.021787 0.011730 0.074684 0.005214 -0.000444 -0.004561
0.063305 0.012032 0.085060 -0.002459 -0.000270 -0.006479
0.049390 0.024884 0.099968 -0.000088 0.006891 0.007181
0.037958 0.012706 0.001534 -0.001730 0.000115 -0.006965
0.069968 0.012890 0.004181 0.002869 0.000217 -0.006584
0.039626 0.019648 0.098911 -0.001491 0.003977 0.007029
0.078556 0.025000 0.019670 -0.001316 0.007124 0.001759
0.075295 0.000294 0.022358 -0.004674 -0.007040 0.005108
0.013219 0.010343 0.043047 0.006797 -0.001244 0.001285
0.069546 0.025000 0.014001 -0.001326 0.007139 0.002705
0.017233 0.025000 0.078625 0.000063 0.007087 -0.000114
0.086876 0.004387 0.016262 0.005299 -0.004514 -0.004848
0.046208 0.007286 0.000199 -0.000545 -0.002901 -0.007157
0.024016 0.008582 0.076952 0.004802 -0.002260 -0.004981
0.078267 0.012439 0.091180 0.004062 -0.000034 0.005918
0.095064 0.014803 0.028460 0.006476 0.001281 -0.003095
0.024135 0.004836 0.022929 0.004780 -0.004421 0.005003
0.004560 0.000000 0.042939 -0.002774 -0.007035 -0.000089
0.036706 0.021543 0.001869 -0.001910 0.005032 -0.006917
0.020255 0.025000 0.010015 -0.004184 0.006958 -0.005644
0.078371 0.007336 0.008888 0.004077 -0.002873 -0.005908
0.013294 0.000000 0.068346 0.002530 -0.007137 -0.001460
0.025688 0.020326 0.078504 0.004493 0.004514 -0.005267
0.075909 0.025000 0.086547 0.000817 0.007061 0.001042
0.037158 0.000000 0.005364 -0.001018 -0.007027 -0.003056
0.085656 0.024448 0.038605 -0.006589 0.006891 0.002106
0.093789 0.006483 0.074043 0.006293 -0.003348 0.003455
0.001119 0.002862 0.039507 -0.007024 -0.005362 -0.001508
0.059906 0.000000 0.098196 0.001331 -0.006971 0.006161
0.096417 0.006274 0.068411 0.006670 -0.003464 0.002646
0.097203 0.000000 0.045488 0.004270 -0.007007 -0.000532
0.013213 0.014452 0.016173 -0.005286 0.001086 -0.004861
0.085311 0.011549 0.037499 -0.006525 -0.000548 0.002310
0.083897 0.018324 0.034112 -0.006264 0.003359 0.002936
0.075053 0.025000 0.012360 0.001402 0.007051 -0.001347
0.000209 0.016408 0.053980 -0.007155 0.002175 0.000572
0.000407 0.007271 0.056069 -0.007127 -0.002909 0.000872
0.070732 0.021899 0.095476 0.002979 0.005230 0.006535
0.069803 0.006708 0.081768 -0.003660 -0.003340 -0.005871
0.002618 0.006206 0.065897 -0.006809 -0.003502 0.002284
0.023873 0.018164 0.076809 0.004828 0.003267 -0.004954
0.049145 0.019149 0.012552 0.000158 0.003835 0.006920
0.042960 0.022046 0.086765 0.001301 0.005506 -0.006794
0.044953 0.024937 0.012870 0.000933 0.007173 0.006861
0.086609 0.025000 0.035589 -0.004536 0.007172 0.001671
0.054926 0.016800 0.099742 0.000708 0.002392 0.007148
0.069724 0.003580 0.095912 0.002834 -0.004963 0.006598
0.012680 0.022424 0.047024 0.006897 0.005724 0.000550
0.055531 0.000000 0.003751 0.000230 -0.007024 -0.003363
0.011200 0.004703 0.018572 -0.005576 -0.004338 -0.004516
0.019177 0.010172 0.028648 0.005696 -0.001342 0.003946
0.021835 0.015670 0.008754 -0.004047 0.001764 -0.005927
0.024817 0.000000 0.090115 -0.002172 -0.007008 0.003669
0.096830 0.020858 0.032666 0.006730 0.004650 -0.002491
0.003093 0.025000 0.033016 -0.006691 0.006956 -0.002422
0.011465 0.006803 0.081755 -0.005538 -0.003170 0.004563
0.004995 0.025000 0.068408 -0.005246 0.006982 0.002182
0.079314 0.000000 0.010066 0.003918 -0.006964 -0.005407
0.058446 0.024254 0.013493 -0.001561 0.006779 0.006746
0.042429 0.000452 0.000645 -0.001088 -0.006704 -0.007092
0.073222 0.024930 0.094207 0.003337 0.006916 0.006353
0.001501 0.021593 0.038079 -0.006969 0.005060 -0.001713
0.084610 0.000000 0.018336 0.002710 -0.007018 -0.002545
0.081240 0.010733 0.070677 -0.005773 -0.001019 -0.003821
0.052338 0.013142 0.012641 -0.000432 0.000370 0.006904
0.087262 0.003463 0.053939 -0.006886 -0.005212 -0.000728
0.098676 0.017223 0.038742 0.006995 0.002628 -0.001618
0.087267 0.000706 0.046144 -0.006887 -0.006803 0.000713
0.011869 0.011688 0.017746 -0.005480 -0.000452 -0.004635
0.022690 0.017490 0.091801 -0.003924 0.002776 0.006007
0.052017 0.020966 0.012622 -0.000373 0.004883 0.006907
0.032146 0.025000 0.091449 -0.000790 0.007054 0.001525
0.015995 0.018171 0.034352 0.006284 0.003271 0.002892
0.085244 0.012565 0.062718 -0.006513 0.000037 -0.002350
0.039163 0.025000 0.012597 0.001587 0.007179 0.004959
0.032153 0.000000 0.084993 0.002339 -0.007173 -0.004314
0.071558 0.000000 0.008809 0.001513 -0.007026 -0.002900
0.097622 0.008224 0.034807 0.006843 -0.002379 -0.002183
0.049323 0.015249 0.012541 0.000125 0.001585 0.006922
0.096400 0.000211 0.031545 0.006668 -0.006838 -0.002652
0.031835 0.025000 0.008420 -0.000864 0.007049 -0.001796
0.095880 0.012287 0.030191 0.006593 -0.000118 -0.002847
0.097937 0.016662 0.064015 0.006889 0.002316 0.002014
0.008678 0.012952 0.078048 -0.005938 0.000251 0.004031
0.023449 0.014510 0.023615 0.004907 0.001159 0.004876
0.063925 0.000000 0.011988 -0.001321 -0.007149 0.003297
0.006730 0.000000 0.057973 -0.000412 -0.007076 0.000314
0.011337 0.018240 0.081598 -0.005556 0.003194 0.004541
0.094814 0.025000 0.030271 0.005491 0.006976 -0.002475
0.088328 0.016047 0.017989 0.005508 0.001973 -0.004600
0.056092 0.001767 0.099589 0.000875 -0.005972 0.007126
0.099926 0.010047 0.051420 0.007174 -0.001365 0.000204
0.071219 0.006493 0.095228 0.003049 -0.003342 0.006499
0.051805 0.025000 0.012112 -0.000265 0.007199 0.006354
0.097743 0.025000 0.058602 0.005456 0.006984 0.001066
0.075504 0.000209 0.007026 0.003665 -0.006839 -0.006176
0.007554 0.025000 0.027841 -0.004300 0.006997 -0.002240
0.034123 0.009739 0.097389 -0.002282 -0.001536 0.006810
0.045424 0.018969 0.000240 -0.000658 0.003599 -0.007151
0.000035 0.017369 0.049327 -0.007180 0.002709 -0.000097
0.021579 0.019262 0.074418 0.005252 0.003900 -0.004512
0.063263 0.019090 0.001861 0.001906 0.003667 -0.006918
0.024305 0.010891 0.007150 -0.003692 -0.000895 -0.006158
0.074810 0.000000 0.092258 0.003121 -0.006975 0.005225
0.055028 0.025000 0.089897 -0.000553 0.007154 -0.003799
0.011359 0.001427 0.081624 -0.005553 -0.006161 0.004544
0.092598 0.025000 0.040564 0.000047 0.007084 0.000141
0.099806 0.005429 0.046306 0.007157 -0.003935 -0.000531
0.014186 0.000000 0.080719 -0.002910 -0.007011 0.002870
0.014659 0.005831 0.037594 0.006531 -0.003847 0.002293
0.098946 0.013030 0.039849 0.007034 0.000295 -0.001459
0.071447 0.025000 0.010250 0.000882 0.007053 -0.001521
0.042716 0.015805 0.013280 0.001346 0.001906 0.006786
0.015856 0.007295 0.034660 0.006310 -0.003002 0.002835
0.046945 0.022134 0.099840 -0.000439 0.005361 0.007162
0.008824 0.002936 0.021728 -0.005917 -0.005321 -0.004063
0.054442 0.025000 0.003473 0.000452 0.007021 -0.003509
0.032865 0.007075 0.016664 0.003166 -0.003129 0.006160
0.040044 0.025000 0.089789 0.000684 0.007138 -0.002861
0.023476 0.025000 0.084820 -0.000364 0.007080 0.000008
0.029882 0.004395 0.004239 -0.002891 -0.004510 -0.006576
0.018995 0.018194 0.089142 -0.004456 0.003168 0.005625
0.094044 0.025000 0.034183 0.003416 0.007019 -0.001168
0.079044 0.007541 0.026377 -0.005367 -0.002860 0.004365
0.087376 0.023401 0.052055 -0.006907 0.006288 -0.000380
0.006899 0.010401 0.075309 -0.006194 -0.001168 0.003637
0.060001 0.002758 0.013910 -0.001848 -0.005619 0.006669
0.056613 0.007262 0.000494 0.000950 -0.002915 -0.007114
0.025633 0.020036 0.006376 -0.003502 0.004193 -0.006269
0.006063 0.008854 0.026248 -0.006314 -0.002029 -0.003413
0.059516 0.007249 0.099047 0.001368 -0.002922 0.007048
0.095067 0.000000 0.035500 0.003990 -0.007009 -0.001323
0.006893 0.022830 0.075300 -0.006195 0.005748 0.003636
0.058471 0.016002 0.013497 -0.001565 0.002020 0.006746
0.083088 0.000000 0.073186 -0.003026 -0.007150 -0.002040
0.037536 0.013669 0.085323 0.002303 0.000675 -0.006528
0.006369 0.003123 0.074353 -0.006270 -0.005218 0.003500
0.060062 0.013340 0.013928 -0.001859 0.000485 0.006666
0.071730 0.023761 0.005033 0.003123 0.006266 -0.006462
0.029356 0.009811 0.081260 0.003815 -0.001551 -0.005777
0.015994 0.025000 0.032845 0.005545 0.007197 0.002841
0.074582 0.000000 0.080087 -0.003296 -0.007181 -0.004175
0.064714 0.025000 0.097655 0.002083 0.006957 0.006764
0.038192 0.025000 0.005039 -0.000504 0.007025 -0.003316
0.088973 0.005406 0.018786 0.005601 -0.003947 -0.004485
0.014421 0.000000 0.021918 -0.001705 -0.007049 -0.001016
0.069885 0.003396 0.081718 -0.003675 -0.005251 -0.005861
0.003508 0.025000 0.046835 -0.003387 0.007023 -0.000455
0.054058 0.000000 0.007874 -0.000324 -0.007111 0.001420
0.000028 0.022623 0.050543 -0.007181 0.005633 0.000078
0.064322 0.020092 0.015398 -0.002647 0.004379 0.006394
0.034968 0.025000 0.004148 -0.001554 0.006990 -0.004991
0.087907 0.000000 0.053856 -0.006164 -0.007196 -0.000713
0.021807 0.009315 0.025291 0.005210 -0.001837 0.004566
0.015517 0.011049 0.035414 0.006372 -0.000837 0.002695
0.012662 0.015001 0.083233 -0.005366 0.001392 0.004776
0.018757 0.018433 0.070671 0.005774 0.003422 -0.003820
0.083636 0.000000 0.023546 -0.000941 -0.007100 0.000184
0.021446 0.025000 0.016755 -0.000090 0.007080 -0.000247
0.047474 0.008986 0.099868 -0.000363 -0.001955 0.007166
0.029600 0.003820 0.018593 0.003770 -0.005006 0.005804
0.086604 0.021730 0.015990 0.005260 0.005136 -0.004887
0.016006 0.021905 0.034327 0.006282 0.005424 0.002896
0.014844 0.020533 0.014542 -0.005052 0.004470 -0.005095
0.096557 0.009554 0.031955 0.006690 -0.001639 -0.002593
0.028116 0.025000 0.093867 -0.002725 0.006974 0.005505
0.014971 0.002476 0.014415 -0.005034 -0.005577 -0.005114
0.011533 0.016735 0.018161 -0.005528 0.002356 -0.004575
0.086094 0.009852 0.040011 -0.006670 -0.001527 0.001846
0.010070 0.000000 0.040332 0.002740 -0.007136 0.000801
0.068089 0.013108 0.096540 0.002599 0.000338 0.006688
0.005819 0.020043 0.073273 -0.006349 0.004197 0.003344
0.079606 0.007934 0.072906 -0.005471 -0.002633 -0.004233
0.019753 0.006775 0.027913 0.005590 -0.003302 0.004082
0.084548 0.025000 0.017974 0.003032 0.007013 -0.002560
0.015511 0.016866 0.013875 -0.004956 0.002429 -0.005191
0.042016 0.025000 0.002798 -0.000664 0.006997 -0.004821
0.080508 0.003287 0.028246 -0.005638 -0.005314 0.004020
0.025266 0.024474 0.006563 -0.003554 0.006663 -0.006242
0.078813 0.003109 0.009175 0.004141 -0.005225 -0.005867
0.080868 0.017937 0.089253 0.004436 0.003025 0.005641
0.043638 0.007622 0.099546 -0.000914 -0.002714 0.007120
0.014921 0.015741 0.085535 -0.005041 0.001803 0.005106
0.007546 0.025000 0.042142 0.000492 0.007093 -0.000111
0.006101 0.013839 0.073827 -0.006308 0.000745 0.003424
0.028721 0.000000 0.011162 -0.000449 -0.007071 -0.000611
0.054449 0.015455 0.012769 -0.000822 0.001705 0.006880
0.049548 0.007175 0.012527 0.000084 -0.003071 0.006925
0.072068 0.025000 0.088278 0.000332 0.007073 0.000564
0.034446 0.024388 0.097513 -0.002235 0.006615 0.006828
0.070836 0.000000 0.014945 -0.001661 -0.007142 0.002687
0.012505 0.007733 0.049920 0.006929 -0.002749 0.000015
0.020958 0.007767 0.090676 -0.004173 -0.002634 0.005845
0.091074 0.000000 0.055015 -0.002496 -0.007130 -0.000391
0.074033 0.025000 0.007170 0.003058 0.006973 -0.005401
0.085414 0.000000 0.037494 -0.006421 -0.007208 0.002271
0.074545 0.011326 0.078322 -0.004536 -0.000677 -0.005234
0.074972 0.021746 0.077964 -0.004615 0.005333 -0.005168
0.070291 0.010978 0.095695 0.002916 -0.000847 0.006566
0.025625 0.025000 0.092057 -0.002874 0.006983 0.004845
0.015913 0.025000 0.067702 0.005210 0.007191 -0.002761
0.049810 0.000000 0.099363 0.000035 -0.006968 0.006481
0.062729 0.007875 0.001718 0.001829 -0.002574 -0.006938
0.013961 0.025000 0.083960 -0.004895 0.006964 0.004560
0.088086 0.012228 0.017690 0.005473 -0.000151 -0.004643
0.008857 0.000000 0.036092 0.000102 -0.007088 0.000282
0.075833 0.013996 0.077103 -0.004774 0.000863 -0.005009
0.025409 0.000000 0.012197 -0.001336 -0.007053 -0.001245
0.046669 0.025000 0.093540 -0.000239 0.007083 0.000083
0.038668 0.020502 0.014324 0.002094 0.004615 0.006593
0.068378 0.020539 0.003571 0.002641 0.004473 -0.006672
0.071053 0.000000 0.005399 0.002734 -0.006968 -0.005853
0.090468 0.021610 0.020638 0.005815 0.005069 -0.004219
0.068904 0.000000 0.095484 0.002473 -0.006969 0.005894
0.019403 0.014874 0.028360 0.005654 0.001369 0.003999
0.012223 0.025000 0.050953 0.006541 0.007203 -0.000176
0.033753 0.019234 0.083736 0.003002 0.003884 -0.006234
0.081130 0.005968 0.010959 0.004473 -0.003634 -0.005610
0.099855 0.002236 0.047233 0.007164 -0.005711 -0.000398
0.000210 0.013341 0.054003 -0.007155 0.000468 0.000575
0.019264 0.018685 0.028537 0.005680 0.003568 0.003966
0.017461 0.012318 0.031471 0.006013 -0.000105 0.003424
0.087456 0.016983 0.049278 -0.006922 0.002586 0.000133
0.073108 0.013156 0.094265 0.003321 0.000365 0.006361
0.050795 0.025000 0.002193 0.000114 0.006999 -0.004750
0.090870 0.025000 0.036977 -0.000591 0.007098 0.000580
0.031629 0.003704 0.082634 0.003395 -0.005073 -0.006031
0.074877 0.005907 0.078059 -0.004597 -0.003803 -0.005185
0.081107 0.015864 0.010940 0.004470 0.001872 -0.005613
0.000145 0.006696 0.047235 -0.007164 -0.003229 -0.000397
0.094530 0.009236 0.072588 0.006399 -0.001816 0.003246
0.047281 0.009034 0.087336 0.000503 -0.001999 -0.006899
0.061032 0.016580 0.085769 -0.002039 0.002353 -0.006610
0.075986 0.017828 0.023049 -0.004802 0.003073 0.004980
0.085019 0.006964 0.014406 0.005032 -0.003080 -0.005115
0.052491 0.022252 0.099869 0.000358 0.005426 0.007166
0.006642 0.000000 0.073465 -0.005664 -0.006968 0.003075
0.077763 0.000000 0.080631 -0.001657 -0.007131 -0.001972
0.085458 0.020301 0.037969 -0.006552 0.004500 0.002223
0.086328 0.000247 0.040762 -0.006713 -0.007067 0.001707
0.086712 0.009914 0.057328 -0.006784 -0.001491 -0.001354
0.014180 0.022579 0.060868 0.006619 0.005813 -0.002008
0.002397 0.018522 0.065264 -0.006841 0.003351 0.002194
0.092741 0.025000 0.025820 0.005378 0.006973 -0.003073
0.010401 0.014036 0.019559 -0.005690 0.000855 -0.004375
0.074473 0.018494 0.078378 -0.004522 0.003457 -0.005244
0.057217 0.000000 0.008195 -0.000644 -0.007107 0.001164
0.095295 0.021841 0.071088 0.006509 0.005197 0.003030
0.062850 0.008794 0.085203 -0.002375 -0.002137 -0.006505
0.024876 0.000000 0.022138 0.004609 -0.007209 0.005118
0.014254 0.008607 0.038894 0.006606 -0.002246 0.002052
0.088753 0.025000 0.021537 0.004104 0.006994 -0.002925
0.098834 0.009630 0.039332 0.007018 -0.001597 -0.001533
0.098048 0.011689 0.036398 0.006905 -0.000451 -0.001955
0.015288 0.004785 0.064078 0.006415 -0.004450 -0.002602
0.095681 0.025000 0.041516 0.003247 0.007026 -0.000402
0.089549 0.015040 0.080503 0.005683 0.001413 0.004383
0.014801 0.025000 0.018897 -0.002767 0.007016 -0.002601
0.007060 0.005674 0.024444 -0.006171 -0.003798 -0.003672
0.025235 0.004253 0.093421 -0.003559 -0.004589 0.006240
0.027680 0.001943 0.005333 -0.003207 -0.005874 -0.006419
0.086509 0.020330 0.058437 -0.006747 0.004516 -0.001559
0.025070 0.018306 0.021993 0.004607 0.003349 0.005176
0.084411 0.007495 0.064747 -0.006359 -0.002887 -0.002725
0.034949 0.003485 0.084274 0.002781 -0.005199 -0.006334
0.082307 0.024269 0.088088 0.004643 0.006548 0.005473
0.071065 0.000000 0.081223 -0.003748 -0.007206 -0.005570
0.094149 0.024022 0.073337 0.006344 0.006411 0.003354
0.036652 0.000000 0.011194 0.001017 -0.007137 0.002710
0.087451 0.025000 0.043747 -0.006220 0.007199 0.001082
0.034461 0.013290 0.002481 -0.002233 0.000440 -0.006829
0.028757 0.006610 0.080898 0.003926 -0.003397 -0.005710
0.089167 0.025000 0.025623 0.002528 0.007033 -0.001363
0.019807 0.007050 0.010200 -0.004339 -0.003032 -0.005719
0.066280 0.023487 0.002766 0.002340 0.006113 -0.006788
0.039235 0.000000 0.090952 0.000643 -0.007109 -0.001236
0.028530 0.021353 0.080730 0.003968 0.005106 -0.005679
0.057096 0.000120 0.013245 -0.001311 -0.007141 0.006792
0.031706 0.000411 0.003538 -0.002629 -0.006727 -0.006677
0.076003 0.008883 0.076934 -0.004805 -0.002086 -0.004977
0.061530 0.024626 0.085614 -0.002131 0.006994 -0.006581
0.080071 0.022699 0.027688 -0.005557 0.005882 0.004123
0.016564 0.008317 0.012826 -0.004805 -0.002328 -0.005342
0.098031 0.000000 0.041001 0.005838 -0.006977 -0.001164
0.059363 0.020979 0.086289 -0.001730 0.004890 -0.006706
0.065798 0.009999 0.002580 0.002270 -0.001391 -0.006814
0.037175 0.010162 0.098256 -0.001843 -0.001301 0.006935
0.010185 0.000000 0.058369 0.003210 -0.007144 -0.000665
0.094276 0.000000 0.071887 0.005885 -0.006966 0.002894
0.029586 0.021587 0.018601 0.003772 0.005241 0.005802
0.012727 0.025000 0.035260 0.003772 0.007157 0.001344
0.059871 0.021686 0.098990 0.001418 0.005111 0.007040
0.082755 0.025000 0.027970 -0.003815 0.007169 0.002717
0.063181 0.023445 0.001839 0.001894 0.006090 -0.006921
0.023848 0.000000 0.083885 0.000697 -0.007101 -0.000569
0.010826 0.025000 0.025401 -0.002442 0.007029 -0.001862
0.075709 0.022878 0.092841 0.003694 0.005774 0.006156
0.097710 0.013269 0.064865 0.006856 0.000428 0.002136
0.062738 0.000000 0.089327 -0.000777 -0.007130 -0.002414
0.033338 0.021431 0.016451 0.003079 0.005151 0.006200
0.069806 0.016672 0.004119 0.002846 0.002321 -0.006593
0.011270 0.000000 0.061646 0.003416 -0.007149 -0.000936
0.056779 0.007252 0.013187 -0.001253 -0.003027 0.006803
0.064984 0.013874 0.097678 0.002153 0.000765 0.006851
0.068433 0.023960 0.096408 0.002649 0.006377 0.006669
0.052803 0.009435 0.012670 -0.000518 -0.001768 0.006899
0.012994 0.002194 0.055724 0.006839 -0.005944 -0.001058
0.047198 0.014521 0.087331 0.000518 0.001166 -0.006899
0.014765 0.022089 0.085379 -0.005063 0.005335 0.005084
0.078044 0.000000 0.014521 0.000944 -0.007051 -0.001615
0.023534 0.025000 0.014192 -0.000560 0.007066 -0.000886
0.087119 0.019623 0.044895 -0.006859 0.004108 0.000943
0.014380 0.025000 0.070596 0.002384 0.007134 -0.001382
0.081070 0.000000 0.083667 0.001749 -0.007040 0.001773
0.096298 0.010419 0.068719 0.006653 -0.001158 0.002690
0.028495 0.000000 0.084582 0.001824 -0.007143 -0.002666
0.086091 0.005369 0.060001 -0.006669 -0.004113 -0.001848
0.009535 0.019535 0.079368 -0.005815 0.003914 0.004220
0.056245 0.020119 0.086910 -0.001154 0.004394 -0.006821
0.067511 0.021180 0.083154 -0.003236 0.005006 -0.006127
0.066258 0.025000 0.006163 0.001219 0.007020 -0.003353
0.052704 0.000000 0.092559 0.000215 -0.007104 -0.001063
0.078078 0.004855 0.091303 0.004035 -0.004254 0.005935
0.010882 0.025000 0.079675 -0.004988 0.006973 0.003704
0.065011 0.000000 0.003016 0.001928 -0.006969 -0.006146
0.032226 0.009818 0.003339 -0.002554 -0.001492 -0.006705
0.007475 0.025000 0.058156 0.000223 0.007090 -0.000389
0.005126 0.017010 0.071913 -0.006448 0.002509 0.003149
0.068906 0.012744 0.017690 -0.003494 0.000141 0.005971
0.072687 0.015724 0.005520 0.003260 0.001794 -0.006392
0.099603 0.010863 0.043999 0.007128 -0.000911 -0.000862
0.001802 0.012074 0.036955 -0.006926 -0.000237 -0.001875
0.013010 0.017156 0.044188 0.006836 0.002685 0.001074
0.032022 0.017924 0.003417 -0.002583 0.003018 -0.006694
0.032528 0.000000 0.092262 -0.001030 -0.007041 0.002168
0.069520 0.023576 0.081939 -0.003607 0.006388 -0.005902
0.042415 0.008458 0.086665 0.001402 -0.002331 -0.006776
0.034411 0.015530 0.015968 0.002881 0.001747 0.006289
0.082026 0.021493 0.069377 -0.005918 0.005187 -0.003581
0.088634 0.003702 0.081632 0.005552 -0.004895 0.004546
0.082306 0.013421 0.088089 0.004642 0.000513 0.005473
0.005731 0.025000 0.052661 -0.000907 0.007069 -0.000280
0.028209 0.025000 0.005698 -0.002871 0.006967 -0.005871
0.036324 0.007444 0.015107 0.002527 -0.002916 0.006448
0.056937 0.025000 0.010175 -0.000468 0.007149 0.003529
0.001794 0.000000 0.062512 -0.006802 -0.006958 0.001767
0.046601 0.000000 0.010792 0.000366 -0.007171 0.004754
0.088349 0.000000 0.068386 -0.001016 -0.007107 -0.000695
0.053435 0.000687 0.012708 -0.000635 -0.006813 0.006891
0.001830 0.003778 0.063148 -0.006922 -0.004853 0.001889
0.090605 0.025000 0.043285 -0.002614 0.007133 0.000727
0.080622 0.021899 0.089452 0.004400 0.005229 0.005669
0.049546 0.025000 0.009475 0.000084 0.007147 0.003478
0.068747 0.025000 0.086525 -0.001393 0.007137 -0.002538
0.083581 0.008917 0.087033 0.004826 -0.001994 0.005322
0.099741 0.009480 0.054940 0.007148 -0.001680 0.000710
0.081262 0.015565 0.029359 -0.005777 0.001768 0.003814
0.009161 0.025000 0.050830 0.003094 0.007141 -0.000153
0.021552 0.020357 0.025617 0.005257 0.004532 0.004506
0.087000 0.025000 0.079498 0.003204 0.007008 0.002780
0.004482 0.024968 0.029351 -0.006541 0.006937 -0.002967
0.029538 0.018229 0.095613 -0.002940 0.003188 0.006555
0.049759 0.000000 0.010068 -0.000035 -0.007160 0.004171
0.056314 0.023381 0.099554 0.000907 0.006054 0.007121
0.005388 0.000000 0.049696 -0.001125 -0.007064 0.000056
0.090310 0.000000 0.043748 -0.003167 -0.007142 0.000245
0.015374 0.015694 0.064270 0.006399 0.001842 -0.002637
0.094367 0.020471 0.027091 0.006376 0.004435 -0.003292
0.013034 0.000000 0.041445 0.006212 -0.007200 0.001516
0.049997 0.011186 0.100000 -0.000000 -0.000731 0.007185
0.097105 0.005497 0.033383 0.006769 -0.003896 -0.002388
0.021521 0.025000 0.021259 0.002599 0.007148 0.002353
0.046145 0.002310 0.087267 0.000712 -0.005877 -0.006887
0.042803 0.010778 0.013264 0.001330 -0.000993 0.006789
0.010175 0.000000 0.071371 -0.001561 -0.007052 0.000886
0.017456 0.019131 0.031480 0.006014 0.003824 0.003422
0.022017 0.006649 0.074954 0.005171 -0.003374 -0.004611
0.023705 0.014807 0.076641 0.004859 0.001330 -0.004923
0.075778 0.003354 0.092796 0.003704 -0.005089 0.006150
0.091668 0.025000 0.071560 0.003342 0.007017 0.001709
0.028034 0.015512 0.019658 0.004059 0.001737 0.005607
0.011801 0.025000 0.039833 0.004494 0.007168 0.001046
0.094427 0.025000 0.056080 0.001377 0.007059 0.000266
0.018878 0.022740 0.089048 -0.004472 0.005698 0.005611
0.095774 0.025000 0.045122 0.002705 0.007036 -0.000231
0.027117 0.009117 0.020377 0.004229 -0.001951 0.005474
0.012055 0.025000 0.032025 0.001583 0.007117 0.000904
0.037801 0.003145 0.085405 0.002254 -0.005396 -0.006543
0.011701 0.007765 0.017954 -0.005504 -0.002635 -0.004605
0.089312 0.011520 0.080795 0.005649 -0.000545 0.004425
0.010048 0.018804 0.019995 -0.005741 0.003508 -0.004312
0.062532 0.018011 0.098335 0.001801 0.003066 0.006946
0.036567 0.018479 0.001907 -0.001930 0.003327 -0.006911
0.094961 0.017238 0.071743 0.006461 0.002636 0.003124
0.010745 0.014629 0.080866 -0.005641 0.001184 0.004436
0.073421 0.004054 0.005894 0.003366 -0.004700 -0.006338
0.068116 0.025000 0.017102 -0.003274 0.007208 0.005978
0.000177 0.012576 0.046619 -0.007160 0.000042 -0.000486
0.067471 0.020598 0.096777 0.002511 0.004506 0.006722
0.008584 0.025000 0.031675 -0.001726 0.007051 -0.000790
0.084126 0.000000 0.079037 0.001105 -0.007060 0.000807
0.062451 0.002684 0.085327 -0.002301 -0.005662 -0.006528
0.091349 0.003585 0.021994 0.005942 -0.004961 -0.004025
0.099036 0.020183 0.040415 0.007047 0.004275 -0.001377
0.016027 0.000000 0.078064 -0.000210 -0.007074 0.000656
0.064462 0.021868 0.084539 -0.002672 0.005403 -0.006383
0.034134 0.010393 0.083907 0.002932 -0.001215 -0.006266
0.083140 0.000000 0.067785 -0.005977 -0.007207 -0.003202
0.030135 0.023811 0.081731 0.003671 0.006524 -0.005864
0.022323 0.000000 0.012159 -0.002245 -0.007018 -0.002928
0.094776 0.000000 0.062949 0.003396 -0.007022 0.000708
0.025183 0.012393 0.078109 0.004586 -0.000062 -0.005194
0.090942 0.009430 0.078632 0.005884 -0.001708 0.004115
0.000505 0.002803 0.043317 -0.007113 -0.005396 -0.000960
0.014508 0.024905 0.014878 -0.005100 0.006902 -0.005047
0.072580 0.003568 0.079861 -0.004173 -0.005152 -0.005518
0.031708 0.000057 0.096462 -0.002629 -0.006923 0.006677
0.027813 0.012969 0.094735 -0.003188 0.000261 0.006428
0.032294 0.021010 0.096687 -0.002544 0.004735 0.006709
0.036637 0.023057 0.014966 0.002469 0.006089 0.006474
0.083730 0.017535 0.066260 -0.006233 0.002904 -0.003005
0.003384 0.015077 0.032107 -0.006699 0.001434 -0.002571
0.046540 0.003501 0.012709 0.000639 -0.005190 0.006891
0.045877 0.000000 0.096680 -0.000225 -0.007018 0.003680
0.000227 0.015755 0.045676 -0.007153 0.001811 -0.000621
0.065019 0.025000 0.094557 0.001121 0.007016 0.003668
0.052856 0.012917 0.000150 0.000410 0.000232 -0.007164
0.008286 0.025000 0.066724 -0.001367 0.007057 0.000648
0.036728 0.013258 0.098137 -0.001907 0.000422 0.006917
0.078898 0.017406 0.026191 -0.005340 0.002830 0.004400
0.082631 0.020243 0.087826 0.004689 0.004308 0.005436
0.086406 0.025000 0.075673 0.000786 0.007066 0.000715
0.027965 0.000015 0.019712 0.004072 -0.007201 0.005597
0.009373 0.006122 0.020882 -0.005838 -0.003549 -0.004184
0.034206 0.025000 0.015004 0.002407 0.007190 0.005317
0.015410 0.025000 0.029785 0.003574 0.007156 0.001688
0.097159 0.019566 0.066477 0.006777 0.003932 0.002368
0.016867 0.020980 0.087419 -0.004761 0.004718 0.005377
0.065710 0.006672 0.002547 0.002258 -0.003243 -0.006819
0.077144 0.023262 0.008091 0.003901 0.005988 -0.006022
0.001352 0.000000 0.056004 -0.006065 -0.006974 0.000750
0.061174 0.002547 0.001301 0.001606 -0.005538 -0.006998
0.039381 0.023898 0.001152 -0.001526 0.006342 -0.007020
0.011963 0.025000 0.060530 0.004408 0.007168 -0.001389
0.003435 0.025000 0.055911 -0.003803 0.007016 0.000212
0.032702 0.012205 0.016737 0.003197 -0.000170 0.006147
0.058396 0.025000 0.096362 0.000543 0.007012 0.003972
0.090818 0.000000 0.071846 0.002669 -0.007030 0.001461
0.006395 0.025000 0.072958 -0.005691 0.006969 0.002997
0.000656 0.016967 0.057636 -0.007091 0.002485 0.001097
0.082931 0.003466 0.067880 -0.006086 -0.005210 -0.003304
0.025332 0.025000 0.017466 0.001946 0.007141 0.002417
0.076572 0.000000 0.019235 -0.002275 -0.007145 0.002457
0.099860 0.018736 0.047320 0.007165 0.003470 -0.000385
0.004845 0.016913 0.028638 -0.006489 0.002455 -0.003070
0.094609 0.004257 0.027566 0.006410 -0.004586 -0.003224
0.026901 0.016604 0.094270 -0.003319 0.002284 0.006362
0.000449 0.006297 0.043666 -0.007121 -0.003451 -0.000910
0.087224 0.011367 0.054534 -0.006879 -0.000654 -0.000838
0.081540 0.001032 0.070182 -0.005828 -0.006615 -0.003729
0.077087 0.025000 0.076729 -0.004459 0.007197 -0.004332
0.003876 0.011628 0.030828 -0.006628 -0.000485 -0.002755
0.098375 0.000591 0.037618 0.006952 -0.006626 -0.001779
0.010565 0.025000 0.042971 0.003927 0.007156 0.000585
0.042509 0.023010 0.099367 -0.001076 0.005848 0.007094
0.087360 0.014197 0.047692 -0.006904 0.000979 0.000427
0.034849 0.006974 0.084229 0.002800 -0.003187 -0.006325
0.020139 0.015375 0.090069 -0.004291 0.001600 0.005758
0.010856 0.000000 0.023504 -0.003449 -0.007010 -0.002305
0.053887 0.000000 0.095744 0.000442 -0.007038 0.002590
0.089951 0.025000 0.033336 -0.000412 0.007091 -0.000024
0.029350 0.016873 0.004482 -0.002967 0.002433 -0.006541
0.099421 0.005648 0.042847 0.007102 -0.003813 -0.001028
0.088204 0.000000 0.063683 -0.003168 -0.007146 -0.001317
0.091600 0.025000 0.029898 0.002698 0.007032 -0.001167
0.028823 0.000000 0.092621 -0.001965 -0.007003 0.004071
0.087273 0.008060 0.053749 -0.006888 -0.002561 -0.000693
0.090259 0.024838 0.079626 0.005785 0.006865 0.004257
0.004485 0.021948 0.070655 -0.006541 0.005257 0.002968
0.044175 0.000000 0.092377 0.000344 -0.007101 -0.000859
0.028593 0.000000 0.080963 0.003845 -0.007207 -0.005569
0.078740 0.000000 0.022167 -0.003050 -0.007157 0.002632
0.039618 0.007694 0.014028 0.001919 -0.002772 0.006647
0.061877 0.013456 0.098510 0.001707 0.000532 0.006971
0.020797 0.024598 0.090572 -0.004197 0.006731 0.005830
0.073938 0.000000 0.015156 -0.000873 -0.007112 0.001241
0.098135 0.004529 0.036720 0.006917 -0.004435 -0.001908
0.008098 0.018641 0.022846 -0.006021 0.003417 -0.003902
0.075142 0.025000 0.018880 -0.002377 0.007157 0.003230
0.042436 0.018339 0.086669 0.001398 0.003368 -0.006776
0.079519 0.020790 0.009654 0.004242 0.004613 -0.005798
0.085199 0.003935 0.062860 -0.006505 -0.004940 -0.002376
0.097817 0.015090 0.035535 0.006871 0.001441 -0.002079
0.053966 0.007739 0.087260 -0.000733 -0.002746 -0.006886
0.018720 0.000000 0.028891 0.005488 -0.007204 0.003732
0.049996 0.014727 0.000000 -0.000001 0.001239 -0.007185
0.040534 0.000993 0.099055 -0.001360 -0.006402 0.007049
0.039271 0.013393 0.014136 0.001983 0.000515 0.006627
0.086183 0.013180 0.040295 -0.006686 0.000392 0.001793
0.042309 0.008819 0.000664 -0.001105 -0.002048 -0.007090
0.051234 0.022787 0.000065 0.000177 0.005724 -0.007176
0.084182 0.012565 0.034745 -0.006317 0.000038 0.002819
0.065796 0.000000 0.096900 0.002099 -0.006965 0.006289
0.087600 0.000000 0.073109 0.000641 -0.007074 0.000112
0.088415 0.019364 0.018097 0.005520 0.003819 -0.004584
0.039027 0.009554 0.085787 0.002028 -0.001699 -0.006613
0.067583 0.003223 0.016889 -0.003249 -0.005351 0.006119
0.013586 0.010462 0.058952 0.006729 -0.001176 -0.001654
0.089749 0.025000 0.068884 0.000493 0.007077 0.000000
0.004890 0.013588 0.028549 -0.006482 0.000605 -0.003082
0.070998 0.000000 0.084634 -0.001488 -0.007146 -0.003107
0.068656 0.025000 0.008401 0.000890 0.007044 -0.002054
0.013282 0.020767 0.042704 0.006785 0.004768 0.001348
0.095196 0.000000 0.053453 0.001985 -0.007049 -0.000051
0.000495 0.013699 0.043381 -0.007114 0.000667 -0.000951
0.034060 0.000000 0.005698 -0.001286 -0.007014 -0.003717
0.025825 0.025000 0.088736 -0.001529 0.007042 0.001860
0.045426 0.015533 0.099760 -0.000657 0.001688 0.007151
0.065737 0.011919 0.016035 -0.002908 -0.000335 0.006277
0.019602 0.015316 0.071894 0.005617 0.001624 -0.004046
0.064096 0.017335 0.084704 -0.002605 0.002789 -0.006413
0.024815 0.014490 0.093181 -0.003619 0.001107 0.006205
0.048823 0.000435 0.087429 0.000217 -0.006959 -0.006917
0.087379 0.020049 0.048007 -0.006908 0.004354 0.000368
0.003580 0.000000 0.068380 -0.006663 -0.006955 0.002638
0.093899 0.000000 0.049992 0.000296 -0.007079 -0.000001
0.039096 0.006984 0.001229 -0.001567 -0.003069 -0.007009
0.038558 0.000000 0.094359 -0.000217 -0.007038 0.002612
0.016026 0.021657 0.065719 0.006278 0.005281 -0.002905
0.078357 0.019481 0.091121 0.004075 0.003884 0.005909
0.090337 0.014695 0.020470 0.005796 0.001221 -0.004244
0.015471 0.004055 0.086084 -0.004962 -0.004699 0.005185
0.059179 0.025000 0.006888 0.000108 0.007075 -0.000519
0.054627 0.002262 0.087207 -0.000855 -0.005905 -0.006876
0.002524 0.021000 0.034349 -0.006822 0.004730 -0.002249
0.078870 0.025000 0.010654 0.003487 0.006979 -0.004696
0.013606 0.013915 0.059028 0.006725 0.000816 -0.001668
0.075107 0.017702 0.093232 0.003608 0.002895 0.006213
0.043735 0.000000 0.087457 0.001083 -0.007198 -0.006210
0.030267 0.025000 0.088735 0.000139 0.007087 -0.000101
0.068115 0.000357 0.082789 -0.003348 -0.007004 -0.006059
0.076222 0.003342 0.007493 0.003768 -0.005096 -0.006108
0.072548 0.016165 0.094551 0.003240 0.002039 0.006402
0.042966 0.025000 0.091384 0.000064 0.007117 -0.001832
0.070655 0.025000 0.091779 0.001436 0.007023 0.003083
0.080908 0.025000 0.023321 -0.002304 0.007141 0.002142
0.051751 0.017159 0.099908 0.000252 0.002592 0.007172
0.099523 0.019094 0.043489 0.007117 0.003669 -0.000936
0.072181 0.001167 0.094737 0.003188 -0.006306 0.006429
0.082597 0.007102 0.068432 -0.006024 -0.003113 -0.003406
0.001629 0.000000 0.046582 -0.005537 -0.006985 -0.000320
0.037952 0.000000 0.008323 -0.000174 -0.007089 0.000313
0.043583 0.025000 0.087336 0.001063 0.007200 -0.006324
0.036804 0.021394 0.098157 -0.001896 0.004949 0.006920
0.009243 0.025000 0.069900 -0.001838 0.007049 0.000750
0.090881 0.007492 0.021273 0.005875 -0.002786 -0.004128
0.008635 0.014841 0.022019 -0.005944 0.001302 -0.004021
0.079507 0.011067 0.026968 -0.005453 -0.000826 0.004256
0.008652 0.025000 0.038235 0.000738 0.007097 -0.000044
0.056071 0.025000 0.006439 0.000162 0.007077 -0.000411
0.012716 0.019276 0.046437 0.006890 0.003908 0.000658
0.064749 0.008969 0.015590 -0.002726 -0.002037 0.006359
0.059610 0.000000 0.090694 -0.000547 -0.007122 -0.001976
0.072322 0.019068 0.019937 -0.004125 0.003788 0.005556
0.067739 0.000000 0.005833 0.001726 -0.007003 -0.004178
0.060379 0.025000 0.003405 0.000961 0.007001 -0.004544
0.092434 0.025000 0.075982 0.005931 0.006959 0.003646
0.011928 0.000000 0.029210 0.000293 -0.007090 0.000038
0.092938 0.000110 0.075560 0.006170 -0.006894 0.003673
0.067617 0.015556 0.016910 -0.003256 0.001762 0.006115
0.066342 0.025000 0.091471 0.000465 0.007065 0.000995
0.048290 0.018184 0.099910 -0.000246 0.003162 0.007172
0.014854 0.000000 0.028054 0.001965 -0.007129 0.001440
0.045881 0.018468 0.087251 0.000761 0.003442 -0.006884
0.021372 0.000000 0.021665 0.002510 -0.007152 0.002733
0.031876 0.024975 0.017217 0.003349 0.007195 0.006058
0.012825 0.022348 0.016565 -0.005342 0.005480 -0.004805
0.052644 0.000000 0.088242 -0.000365 -0.007191 -0.005892
0.096874 0.003249 0.067220 0.006736 -0.005147 0.002475
0.016383 0.013018 0.066510 0.006212 0.000298 -0.003051
0.045438 0.025000 0.009667 0.000461 0.007146 0.003400
0.013686 0.006135 0.040717 0.006711 -0.003671 0.001715
0.035756 0.017513 0.097876 -0.002047 0.002789 0.006880
0.017255 0.015413 0.087733 -0.004706 0.001621 0.005422
0.012112 0.025000 0.022028 -0.003114 0.007014 -0.002411
0.050745 0.025000 0.096301 -0.000138 0.007030 0.003067
0.098322 0.000544 0.062579 0.006944 -0.006653 0.001808
0.047305 0.025000 0.007061 0.000432 0.007096 0.000580
0.077359 0.025000 0.016761 -0.000107 0.007095 0.000647
0.092710 0.003375 0.075910 0.006138 -0.005077 0.003723
0.045285 0.021023 0.012809 0.000871 0.004916 0.006873
0.043983 0.011600 0.099601 -0.000865 -0.000501 0.007128
0.018757 0.005477 0.070672 0.005774 -0.004050 -0.003820
0.014225 0.012009 0.038986 0.006611 -0.000283 0.002035
0.091839 0.000000 0.040947 -0.000877 -0.007101 0.000216
0.013561 0.018124 0.084175 -0.005236 0.003129 0.004911
0.005577 0.025000 0.064445 -0.003387 0.007021 0.000939
0.085080 0.015666 0.014466 0.005041 0.001761 -0.005106
0.012667 0.001230 0.052765 0.006899 -0.006500 -0.000511
0.023866 0.007662 0.092565 -0.003756 -0.002692 0.006117
0.024601 0.010973 0.093042 -0.003650 -0.000850 0.006185
0.084408 0.021780 0.035248 -0.006359 0.005353 0.002726
0.040730 0.010999 0.099086 -0.001332 -0.000835 0.007054
0.059985 0.015896 0.001028 0.001435 0.001889 -0.007037
0.001746 0.007404 0.062833 -0.006934 -0.002836 0.001844
0.085091 0.025000 0.031983 -0.004156 0.007170 0.002238
0.056852 0.009118 0.099469 0.000985 -0.001882 0.007109
0.087263 0.022818 0.046082 -0.006886 0.005951 0.000724
0.020120 0.007926 0.072556 0.005522 -0.002638 -0.004168
0.078140 0.013512 0.025224 -0.005200 0.000584 0.004579
0.044109 0.023892 0.000379 -0.000847 0.006339 -0.007131
0.086904 0.000000 0.022928 0.001896 -0.007041 -0.001538
0.014764 0.001956 0.062742 0.006512 -0.006081 -0.002355
0.048706 0.023658 0.012578 0.000239 0.006435 0.006915
0.099222 0.025000 0.049880 0.006316 0.006971 0.000022
0.021578 0.011281 0.091079 -0.004084 -0.000678 0.005903
0.012685 0.012378 0.046946 0.006896 -0.000071 0.000564
0.056991 0.012831 0.013226 -0.001292 0.000191 0.006796
0.058391 0.018672 0.000775 0.001206 0.003434 -0.007074
0.044314 0.001613 0.099653 -0.000817 -0.006058 0.007135
0.061673 0.025000 0.093922 0.000125 0.007046 0.002219
0.080869 0.025000 0.084349 0.001932 0.007033 0.002133
0.092911 0.025000 0.066673 0.002557 0.007035 0.001027
0.071814 0.024299 0.019539 -0.004031 0.006805 0.005629
0.039826 0.000000 0.003751 -0.000840 -0.007009 -0.004121
0.054498 0.024346 0.000236 0.000646 0.006591 -0.007151
0.048416 0.000000 0.003318 -0.000228 -0.007021 -0.003520
0.086992 0.024814 0.055798 -0.006836 0.007102 -0.001071
0.058869 0.000000 0.005024 0.000308 -0.007039 -0.002540
0.078803 0.017309 0.009169 0.004139 0.002676 -0.005868
0.028895 0.018567 0.019019 0.003900 0.003499 0.005725
0.017257 0.008590 0.031809 0.006051 -0.002255 0.003362
0.058134 0.024848 0.000734 0.001169 0.006870 -0.007080
0.086780 0.007295 0.043041 -0.006797 -0.003002 0.001286
0.048921 0.014632 0.099943 -0.000155 0.001186 0.007177
0.001030 0.007067 0.039999 -0.007037 -0.003023 -0.001437
0.050715 0.006708 0.087457 -0.000132 -0.003341 -0.006922
0.082727 0.000000 0.031066 -0.005650 -0.007202 0.003210
0.081292 0.000000 0.080394 0.000259 -0.007084 -0.000177
0.005765 0.003896 0.026832 -0.006357 -0.004787 -0.003329
0.002136 0.013635 0.064288 -0.006878 0.000632 0.002053
0.097543 0.002229 0.034523 0.006832 -0.005715 -0.002224
0.082482 0.013504 0.068623 -0.006002 0.000579 -0.003441
0.061957 0.000000 0.004556 0.000700 -0.007014 -0.003846
0.015314 0.013453 0.014072 -0.004984 0.000530 -0.005163
0.014567 0.007238 0.062112 0.006548 -0.003035 -0.002238
0.012826 0.000000 0.064378 0.003991 -0.007161 -0.001474
0.090077 0.010792 0.020149 0.005759 -0.000951 -0.004290
0.024519 0.000000 0.086961 -0.000819 -0.007058 0.001193
0.091946 0.000000 0.033897 0.001395 -0.007057 -0.000557
0.010508 0.025000 0.063920 0.001792 0.007120 -0.000832
0.012052 0.010354 0.082480 -0.005453 -0.001194 0.004667
0.064798 0.003352 0.002272 0.002126 -0.005090 -0.006859
0.036168 0.003053 0.015177 0.002556 -0.005449 0.006435
0.058843 0.025000 0.090129 -0.000820 0.007136 -0.002718
0.077694 0.016223 0.091552 0.003980 0.002071 0.005971
0.004253 0.004449 0.070156 -0.006574 -0.004480 0.002896
0.024020 0.007095 0.007335 -0.003733 -0.003007 -0.006131
0.084385 0.025000 0.081903 0.002685 0.007017 0.002586
0.099083 0.003476 0.040714 0.007053 -0.005021 -0.001334
0.047524 0.025000 0.089985 0.000097 0.007156 -0.003958
0.001018 0.014000 0.040078 -0.007039 0.000834 -0.001426
0.034974 0.015430 0.084285 0.002777 0.001690 -0.006336
0.058883 0.000000 0.001704 0.001079 -0.006972 -0.006140
0.082082 0.024927 0.011730 0.004610 0.006914 -0.005500
0.035955 0.002932 0.097929 -0.002018 -0.005324 0.006888
0.056037 0.011177 0.000402 0.000868 -0.000736 -0.007127
0.088934 0.008297 0.081262 0.005595 -0.002339 0.004492
0.097531 0.010048 0.065508 0.006830 -0.001364 0.002229
0.087048 0.016597 0.055494 -0.006846 0.002363 -0.001015
0.088590 0.000000 0.035934 -0.002667 -0.007137 0.001093
0.066007 0.013458 0.002661 0.002300 0.000533 -0.006803
0.005559 0.000000 0.036294 -0.003231 -0.007025 -0.000773
0.065124 0.014374 0.084241 -0.002795 0.001081 -0.006328
0.009660 0.009853 0.020474 -0.005797 -0.001473 -0.004243
0.083272 0.004648 0.032722 -0.006148 -0.004529 0.003193
0.000419 0.019656 0.056141 -0.007125 0.003982 0.000882
0.013663 0.000025 0.059211 0.006715 -0.007195 -0.001702
0.096005 0.006494 0.030517 0.006611 -0.003342 -0.002800
0.040361 0.012457 0.086203 0.001781 -0.000025 -0.006690
0.079359 0.025000 0.013772 0.002377 0.007022 -0.002538
0.042298 0.023006 0.013356 0.001423 0.006059 0.006772
0.066141 0.006192 0.016217 -0.002983 -0.003638 0.006243
0.016650 0.012241 0.087244 -0.004792 -0.000144 0.005352
0.010327 0.025000 0.073158 -0.002297 0.007037 0.001280
0.091633 0.005726 0.077568 0.005983 -0.003769 0.003962
0.099285 0.011599 0.058009 0.007082 -0.000501 0.001151
0.059568 0.011476 0.099039 0.001375 -0.000570 0.007047
0.013931 0.017297 0.060068 0.006665 0.002767 -0.001861
0.093538 0.018251 0.074535 0.006257 0.003200 0.003526
0.084322 0.025000 0.021478 0.001006 0.007063 -0.000621
0.039836 0.000000 0.086751 0.001690 -0.007196 -0.005908
0.014697 0.000000 0.031830 0.003898 -0.007164 0.002098
0.027879 0.008740 0.005232 -0.003179 -0.002092 -0.006433
0.043831 0.015401 0.086924 0.001140 0.001673 -0.006823
0.071596 0.007935 0.019368 -0.003991 -0.002633 0.005661
0.017185 0.025000 0.083114 -0.002551 0.007023 0.002315
0.017497 0.000000 0.020714 -0.000106 -0.007082 -0.000092
0.039530 0.020065 0.001112 -0.001505 0.004209 -0.007025
0.088865 0.000000 0.057268 -0.004411 -0.007166 -0.001052
0.085108 0.020707 0.085506 0.005045 0.004567 0.005102
0.038820 0.015653 0.001303 -0.001607 0.001754 -0.006998
0.086576 0.002778 0.058070 -0.006759 -0.005607 -0.001491
0.051901 0.025000 0.090414 -0.000351 0.007148 -0.003488
0.044419 0.011602 0.087032 0.001031 -0.000518 -0.006843
0.087466 0.010322 0.049442 -0.006924 -0.001256 0.000103
0.097029 0.000000 0.050238 0.003850 -0.007015 -0.000044
0.024356 0.000000 0.018937 0.002236 -0.007152 0.002960
0.077855 0.002662 0.075081 -0.005147 -0.005674 -0.004635
0.096316 0.015154 0.031328 0.006656 0.001477 -0.002683
0.086872 0.013432 0.043543 -0.006814 0.000538 0.001193
0.060218 0.013165 0.086023 -0.001888 0.000384 -0.006657
0.000612 0.013507 0.057363 -0.007097 0.000560 0.001058
0.086070 0.016637 0.060067 -0.006666 0.002386 -0.001860
0.019574 0.011093 0.071859 0.005623 -0.000811 -0.004039
0.081818 0.002376 0.011516 0.004572 -0.005633 -0.005530
0.074410 0.015425 0.021573 -0.004511 0.001687 0.005253
0.027842 0.012481 0.080192 0.004095 -0.000011 -0.005579
0.004910 0.025000 0.035848 -0.003885 0.007011 -0.001355
0.099848 0.008813 0.047105 0.007163 -0.002052 -0.000416
0.046110 0.010773 0.000204 -0.000559 -0.000961 -0.007156
0.003073 0.025000 0.050693 -0.003770 0.007017 -0.000128
0.053268 0.025000 0.009173 -0.000121 0.007138 0.002954
0.099506 0.022318 0.056615 0.007114 0.005463 0.000951
0.087480 0.006943 0.050332 -0.006926 -0.003205 -0.000061
0.022005 0.003079 0.008644 -0.004023 -0.005242 -0.005943
0.076720 0.011045 0.023783 -0.004938 -0.000839 0.004845
0.034542 0.009839 0.015909 0.002857 -0.001535 0.006300
0.087482 0.002966 0.050303 -0.006926 -0.005499 -0.000056
0.096096 0.018236 0.030755 0.006624 0.003191 -0.002766
0.062930 0.000000 0.009042 -0.000572 -0.007097 0.000523
0.022503 0.000000 0.079046 0.002839 -0.007158 -0.002877
0.072576 0.000000 0.018755 -0.003335 -0.007187 0.004622
0.026961 0.025000 0.082583 0.002331 0.007160 -0.003491
0.034171 0.006413 0.097408 -0.002275 -0.003387 0.006813
0.029895 0.011919 0.004234 -0.002889 -0.000324 -0.006577
0.087594 0.025000 0.029497 -0.000850 0.007101 0.000335
0.088753 0.025000 0.073700 0.001652 0.007047 0.001350
0.042750 0.005128 0.000594 -0.001042 -0.004102 -0.007100
0.086501 0.013660 0.058478 -0.006745 0.000669 -0.001567
0.000452 0.009549 0.043649 -0.007120 -0.001642 -0.000913
0.058663 0.000000 0.094313 0.000499 -0.007053 0.001691
0.054045 0.015515 0.087255 -0.000748 0.001739 -0.006885
0.087457 0.024875 0.049297 -0.006922 0.007137 0.000130
0.008484 0.000000 0.049685 0.002370 -0.007127 0.000058
0.039542 0.025000 0.092999 -0.000154 0.007072 0.000707
0.082458 0.007354 0.031338 -0.005998 -0.002968 0.003449
0.085046 0.000000 0.075635 -0.000152 -0.007088 -0.000143
0.040823 0.011553 0.000900 -0.001319 -0.000527 -0.007056
0.061439 0.002817 0.098628 0.001644 -0.005388 0.006988
0.020555 0.003164 0.026889 0.005441 -0.005385 0.004271
0.065922 0.003388 0.083882 -0.002942 -0.005256 -0.006261
0.029545 0.020818 0.004383 -0.002939 0.004628 -0.006555
0.052422 0.014129 0.099873 0.000348 0.000907 0.007167
0.050532 0.003540 0.087468 -0.000098 -0.005168 -0.006924
0.066385 0.016960 0.097194 0.002355 0.002482 0.006782
0.074218 0.000000 0.087138 0.000885 -0.007068 0.000515
0.033943 0.002486 0.002680 -0.002307 -0.005572 -0.006800
0.048671 0.011558 0.012580 0.000246 -0.000543 0.006915
0.001055 0.003441 0.060157 -0.007034 -0.005041 0.001460
0.041677 0.019015 0.013470 0.001538 0.003758 0.006751
0.014451 0.012365 0.061737 0.006569 -0.000078 -0.002169
0.027235 0.013291 0.005560 -0.003271 0.000440 -0.006386
0.013178 0.003804 0.083792 -0.005291 -0.004839 0.004856
0.084081 0.025000 0.077962 0.000212 0.007074 0.000695
0.094039 0.025000 0.037420 0.002553 0.007039 -0.000376
0.065552 0.003247 0.097514 0.002235 -0.005149 0.006828
0.094559 0.025000 0.063986 0.003291 0.007022 0.001160
0.092380 0.000000 0.030363 0.003234 -0.007022 -0.001323
0.012540 0.017603 0.050657 0.006922 0.002943 -0.000121
0.023985 0.025000 0.009434 -0.002759 0.006991 -0.004411
0.026443 0.008693 0.079095 0.004353 -0.002195 -0.005377
0.012624 0.005130 0.052053 0.006907 -0.004250 -0.000379
0.002393 0.010511 0.065248 -0.006841 -0.001107 0.002191
0.099809 0.000211 0.053645 0.007158 -0.006837 0.000524
0.032901 0.021144 0.003080 -0.002457 0.004810 -0.006743
0.074649 0.012371 0.021760 -0.004555 -0.000075 0.005219
0.087299 0.007035 0.046679 -0.006893 -0.003152 0.000614
0.026128 0.002963 0.021152 0.004412 -0.005500 0.005331
0.012649 0.016019 0.047544 0.006902 0.002030 0.000454
0.035611 0.005998 0.002163 -0.002068 -0.003618 -0.006874
0.017526 0.024826 0.012047 -0.004667 0.006858 -0.005454
0.053793 0.025000 0.093109 -0.000248 0.007091 -0.000333
0.007778 0.000000 0.042942 0.000740 -0.007100 0.000562
0.060940 0.025000 0.098392 0.001449 0.006962 0.006628
0.098250 0.025000 0.054533 0.005443 0.006986 0.000651
0.050023 0.000000 0.095245 0.000003 -0.007052 0.001817
0.098709 0.009703 0.061134 0.007000 -0.001556 0.001600
0.081349 0.000000 0.015908 0.001981 -0.007030 -0.002334
0.038690 0.016913 0.014318 0.002090 0.002545 0.006594
0.084039 0.011287 0.065572 -0.006290 -0.000700 -0.002878
0.062262 0.000000 0.094683 0.000910 -0.007029 0.002962
0.071650 0.019857 0.080589 -0.004001 0.004243 -0.005653
0.058105 0.016172 0.086570 -0.001498 0.002118 -0.006758
0.004628 0.007404 0.029065 -0.006520 -0.002836 -0.003008
0.004754 0.001427 0.071183 -0.006502 -0.006161 0.003044
0.091523 0.000000 0.037087 -0.000148 -0.007087 -0.000059
0.040123 0.000000 0.010795 0.000834 -0.007150 0.003507
0.028337 0.002252 0.095002 -0.003113 -0.005702 0.006467
0.031269 0.025000 0.085005 0.002022 0.007165 -0.003951
0.001740 0.025000 0.038354 -0.006645 0.006961 -0.001602
0.045862 0.008267 0.012750 0.000765 -0.002442 0.006884
0.003514 0.008213 0.068230 -0.006680 -0.002385 0.002620
0.018285 0.021974 0.069890 0.005861 0.005464 -0.003676
0.014139 0.025000 0.074098 0.000330 0.007093 -0.000322
0.099886 0.012514 0.047829 0.007169 0.000008 -0.000312
0.081842 0.025000 0.016476 0.002151 0.007031 -0.002080
0.088042 0.017293 0.082364 0.005467 0.002667 0.004651
0.097760 0.006505 0.064679 0.006863 -0.003335 0.002109
0.006679 0.000000 0.069186 -0.003870 -0.007008 0.001742
0.097149 0.012638 0.033498 0.006775 0.000077 -0.002371
0.026953 0.025000 0.013044 0.000258 0.007086 -0.000100
0.012780 0.007123 0.054556 0.006878 -0.003101 -0.000842
0.000127 0.002921 0.047580 -0.007167 -0.005330 -0.000348
0.006533 0.000000 0.046823 -0.000037 -0.007084 0.000297
0.054049 0.007526 0.099788 0.000582 -0.002767 0.007155
0.015652 0.000000 0.074729 0.001269 -0.007111 -0.000729
0.087183 0.009846 0.045243 -0.006871 -0.001531 0.000879
0.012727 0.008578 0.046251 0.006888 -0.002262 0.000693
0.028093 0.025000 0.085730 0.000558 0.007118 -0.001799
0.085481 0.025000 0.025656 -0.000535 0.007096 0.000390
0.015385 0.010122 0.064293 0.006397 -0.001372 -0.002641
0.043108 0.020975 0.000538 -0.000990 0.004716 -0.007108
0.049822 0.000000 0.091462 0.000033 -0.007129 -0.002442
0.093140 0.000000 0.045344 -0.000260 -0.007089 0.000050
0.016643 0.000000 0.024423 0.001288 -0.007116 0.001184
0.004703 0.020178 0.028916 -0.006509 0.004272 -0.003030
0.097740 0.019239 0.035248 0.006860 0.003749 -0.002120
0.092478 0.025000 0.046055 -0.001032 0.007104 0.000300
