# This PCD file was generated using the MATLAB® pcwrite function
# from Computer Vision Toolbox®.
# .PCD v.7 - Point Cloud Data file format
VERSION .7
FIELDS x y z normal_x normal_y normal_z
SIZE 4 4 4 4 4 4
TYPE F F F F F F
COUNT 1 1 1 1 1 1
WIDTH 859
HEIGHT 1
VIEWPOINT 0 0 0 1 0 0 0
POINTS 859
DATA ascii
0.099141 0.016826 0.041081 0.000003 0.000001 -0.000001
0.082489 0.000000 0.086351 0.000002 -0.000003 0.000002
0.052618 0.000000 0.095400 0.000000 -0.000003 0.000001
0.020661 0.025000 0.019353 0.000001 0.000003 0.000000
0.004108 0.025000 0.050202 -0.000001 0.000003 -0.000000
0.071584 0.003966 0.095042 0.000001 -0.000002 0.000003
0.013383 0.025000 0.082225 -0.000002 0.000003 0.000002
0.025445 0.019367 0.021687 0.000002 0.000002 0.000002
0.020954 0.000000 0.010337 -0.000002 -0.000003 -0.000002
0.027916 0.025000 0.084770 0.000001 0.000003 -0.000001
0.009854 0.020752 0.079766 -0.000003 0.000002 0.000002
0.073736 0.002976 0.006055 0.000001 -0.000002 -0.000003
0.086331 0.000000 0.074290 0.000000 -0.000003 -0.000000
0.078072 0.022914 0.008694 0.000002 0.000003 -0.000003
0.086470 0.013520 0.041351 -0.000003 0.000000 0.000001
0.094301 0.017263 0.073038 0.000003 0.000001 0.000001
0.086561 0.000000 0.016684 0.000002 -0.000003 -0.000002
0.078150 0.025000 0.086446 0.000001 0.000003 0.000001
0.053750 0.016685 0.099803 0.000000 0.000001 0.000003
0.093757 0.000000 0.044816 0.000000 -0.000003 -0.000000
0.047616 0.025000 0.093932 -0.000000 0.000003 0.000000
0.050502 0.000798 0.099974 0.000000 -0.000003 0.000003
0.014857 0.019212 0.036958 0.000003 0.000002 0.000001
0.006071 0.013280 0.026232 -0.000003 0.000000 -0.000001
0.017216 0.000000 0.068474 0.000003 -0.000003 -0.000001
0.070677 0.000000 0.017370 -0.000001 -0.000003 0.000002
0.096421 0.025000 0.062195 0.000002 0.000003 0.000001
0.083436 0.002069 0.066912 -0.000003 -0.000003 -0.000001
0.017844 0.014602 0.088210 -0.000002 0.000001 0.000002
0.001343 0.017838 0.061330 -0.000003 0.000001 0.000001
0.060955 0.000632 0.098758 0.000001 -0.000003 0.000003
0.007465 0.025000 0.031075 -0.000001 0.000003 -0.000001
0.094820 0.025000 0.064063 0.000002 0.000003 0.000001
0.089798 0.003588 0.080196 0.000002 -0.000002 0.000002
0.003158 0.000000 0.043110 -0.000002 -0.000003 -0.000000
0.065871 0.012874 0.002609 0.000001 0.000000 -0.000003
0.055195 0.011368 0.012897 -0.000000 -0.000000 0.000003
0.081956 0.012150 0.069492 -0.000003 -0.000000 -0.000002
0.027543 0.023649 0.005403 -0.000001 0.000003 -0.000003
0.020181 0.025000 0.072802 0.000002 0.000003 -0.000002
0.024067 0.000000 0.089181 -0.000001 -0.000003 0.000001
0.000033 0.001050 0.049365 -0.000003 -0.000003 -0.000000
0.033417 0.006542 0.083585 0.000001 -0.000002 -0.000003
0.092897 0.009604 0.024377 0.000003 -0.000001 -0.000002
0.039853 0.010150 0.001053 -0.000001 -0.000001 -0.000003
0.099957 0.005228 0.049186 0.000003 -0.000002 -0.000000
0.011150 0.025000 0.043865 0.000002 0.000003 0.000000
0.071945 0.025000 0.017788 -0.000001 0.000003 0.000002
0.087855 0.025000 0.078392 0.000001 0.000003 0.000001
0.053015 0.025000 0.087415 -0.000000 0.000003 -0.000003
0.098171 0.002010 0.063143 0.000003 -0.000003 0.000001
0.014901 0.020518 0.036819 0.000003 0.000002 0.000001
0.039139 0.000000 0.092004 0.000000 -0.000003 -0.000000
0.087308 0.003154 0.046819 -0.000003 -0.000002 0.000000
0.078088 0.023291 0.025156 -0.000002 0.000003 0.000002
0.020336 0.025000 0.087256 -0.000001 0.000003 0.000002
0.089400 0.006385 0.019313 0.000002 -0.000001 -0.000002
0.043148 0.000000 0.006656 -0.000000 -0.000003 -0.000000
0.085321 0.015906 0.037529 -0.000003 0.000001 0.000001
0.063420 0.020565 0.085008 -0.000001 0.000002 -0.000003
0.092961 0.010219 0.075524 0.000003 -0.000001 0.000002
0.079163 0.019172 0.009402 0.000002 0.000002 -0.000003
0.018775 0.009584 0.011036 -0.000002 -0.000001 -0.000002
0.095583 0.013538 0.029479 0.000003 0.000000 -0.000001
0.073887 0.000000 0.020072 -0.000002 -0.000003 0.000002
0.001554 0.024461 0.062117 -0.000003 0.000003 0.000001
0.031602 0.023111 0.017382 0.000002 0.000003 0.000003
0.009085 0.007725 0.021326 -0.000003 -0.000001 -0.000002
0.002199 0.025000 0.042344 -0.000002 0.000003 -0.000000
0.001403 0.007338 0.061555 -0.000003 -0.000001 0.000001
0.015086 0.022151 0.063629 0.000003 0.000003 -0.000001
0.001560 0.023056 0.037860 -0.000003 0.000003 -0.000001
0.067070 0.000938 0.096931 0.000001 -0.000003 0.000003
0.065113 0.025000 0.014730 -0.000001 0.000003 0.000002
0.002528 0.012442 0.065662 -0.000003 -0.000000 0.000001
0.045644 0.000000 0.093859 0.000000 -0.000003 0.000000
0.071917 0.012056 0.080381 -0.000002 -0.000000 -0.000003
0.015218 0.025000 0.016150 -0.000002 0.000003 -0.000002
0.014180 0.017582 0.084794 -0.000002 0.000001 0.000002
0.079346 0.000414 0.073237 -0.000002 -0.000003 -0.000002
0.067919 0.025000 0.090902 0.000000 0.000003 0.000000
0.096838 0.009042 0.032688 0.000003 -0.000001 -0.000001
0.016418 0.013195 0.033411 0.000003 0.000000 0.000001
0.023576 0.012106 0.007624 -0.000002 -0.000000 -0.000003
0.019221 0.000000 0.013350 -0.000001 -0.000003 -0.000002
0.089976 0.025000 0.035297 -0.000001 0.000003 0.000000
0.042817 0.007460 0.086739 0.000001 -0.000001 -0.000003
0.027581 0.009875 0.094616 -0.000001 -0.000001 0.000003
0.030160 0.006919 0.095868 -0.000001 -0.000001 0.000003
0.040826 0.000000 0.099075 -0.000001 -0.000003 0.000003
0.092401 0.025000 0.047329 -0.000001 0.000003 0.000000
0.032429 0.001890 0.016882 0.000001 -0.000003 0.000003
0.076045 0.022743 0.023109 -0.000002 0.000003 0.000002
0.096253 0.025000 0.060941 0.000002 0.000003 0.000000
0.065326 0.008688 0.002414 0.000001 -0.000001 -0.000003
0.005811 0.025000 0.042487 -0.000001 0.000003 -0.000000
0.031094 0.004041 0.003773 -0.000001 -0.000002 -0.000003
0.013130 0.025000 0.020764 -0.000001 0.000003 -0.000001
0.006400 0.025000 0.065881 -0.000001 0.000003 0.000000
0.079173 0.025000 0.025087 -0.000002 0.000003 0.000002
0.026238 0.018618 0.021065 0.000002 0.000002 0.000002
0.010117 0.000000 0.070213 -0.000000 -0.000003 0.000000
0.007986 0.013629 0.023017 -0.000003 0.000000 -0.000002
0.000023 0.008521 0.049561 -0.000003 -0.000001 -0.000000
0.096165 0.025000 0.063310 0.000002 0.000003 0.000001
0.056434 0.025000 0.090182 -0.000000 0.000003 -0.000001
0.016154 0.000000 0.016418 -0.000001 -0.000003 -0.000001
0.012704 0.022037 0.053367 0.000003 0.000002 -0.000000
0.069190 0.000920 0.082139 -0.000002 -0.000003 -0.000003
0.061941 0.014921 0.014514 -0.000001 0.000001 0.000003
0.032324 0.019823 0.016946 0.000001 0.000002 0.000003
0.086432 0.025000 0.037379 -0.000002 0.000003 0.000001
0.033368 0.000000 0.008782 -0.000000 -0.000003 -0.000000
0.078441 0.012608 0.025607 -0.000002 0.000000 0.000002
0.095491 0.014062 0.070703 0.000003 0.000000 0.000001
0.038744 0.000000 0.011447 0.000000 -0.000003 0.000002
0.083926 0.016121 0.086688 0.000002 0.000001 0.000002
0.022556 0.022172 0.091714 -0.000002 0.000002 0.000003
0.096104 0.024483 0.030775 0.000003 0.000003 -0.000001
0.066541 0.025000 0.095462 0.000001 0.000003 0.000002
0.013363 0.014514 0.042265 0.000003 0.000001 0.000001
0.078474 0.003235 0.025649 -0.000002 -0.000002 0.000002
0.027416 0.016120 0.094532 -0.000001 0.000001 0.000003
0.092041 0.007915 0.023059 0.000003 -0.000001 -0.000002
0.002367 0.013376 0.065152 -0.000003 0.000000 0.000001
0.008785 0.000000 0.046264 0.000001 -0.000003 0.000000
0.001079 0.024534 0.060309 -0.000003 0.000003 0.000001
0.087237 0.000000 0.077680 0.000001 -0.000003 0.000001
0.084711 0.020080 0.064080 -0.000003 0.000002 -0.000001
0.072145 0.022049 0.080202 -0.000002 0.000002 -0.000003
0.088115 0.025000 0.023017 0.000001 0.000003 -0.000001
0.084289 0.003883 0.065017 -0.000003 -0.000002 -0.000001
0.095465 0.012727 0.070753 0.000003 0.000000 0.000001
0.032770 0.017250 0.083293 0.000001 0.000001 -0.000003
0.069790 0.013369 0.018224 -0.000002 0.000000 0.000003
0.011858 0.000000 0.030878 0.000000 -0.000003 0.000000
0.004641 0.014422 0.070962 -0.000003 0.000000 0.000001
0.015552 0.008582 0.064664 0.000003 -0.000001 -0.000001
0.021832 0.017807 0.025260 0.000002 0.000001 0.000002
0.059992 0.025000 0.092179 -0.000000 0.000003 -0.000000
0.000063 0.011588 0.048792 -0.000003 -0.000000 -0.000000
0.020454 0.000292 0.090324 -0.000002 -0.000003 0.000003
0.043662 0.025000 0.010931 0.000000 0.000003 0.000002
0.080651 0.025000 0.072867 -0.000002 0.000003 -0.000002
0.030887 0.000000 0.008816 -0.000000 -0.000003 -0.000001
0.047646 0.012690 0.087358 0.000000 0.000000 -0.000003
0.018375 0.000000 0.020095 0.000000 -0.000003 0.000000
0.095915 0.000000 0.063278 0.000002 -0.000003 0.000001
0.037985 0.010170 0.085463 0.000001 -0.000001 -0.000003
0.083489 0.000972 0.012875 0.000002 -0.000003 -0.000002
0.027184 0.025000 0.081423 0.000001 0.000003 -0.000002
0.090479 0.011892 0.020654 0.000003 -0.000000 -0.000002
0.046268 0.025000 0.006678 0.000000 0.000003 0.000000
0.044951 0.025000 0.010310 0.000000 0.000003 0.000002
0.079500 0.001863 0.073041 -0.000002 -0.000003 -0.000002
0.000371 0.016047 0.044158 -0.000003 0.000001 -0.000000
0.035043 0.011406 0.015684 0.000001 -0.000000 0.000003
0.017152 0.002060 0.068017 0.000003 -0.000003 -0.000002
0.057098 0.005593 0.000570 0.000000 -0.000002 -0.000003
0.067273 0.012385 0.003147 0.000001 -0.000000 -0.000003
0.056537 0.020180 0.086857 -0.000001 0.000002 -0.000003
0.084718 0.013798 0.085896 0.000002 0.000000 0.000002
0.073761 0.001612 0.021064 -0.000002 -0.000003 0.000002
0.000719 0.008676 0.058034 -0.000003 -0.000001 0.000001
0.094269 0.011693 0.073100 0.000003 -0.000000 0.000001
0.058211 0.025000 0.007980 -0.000000 0.000003 0.000000
0.023739 0.011187 0.076675 0.000002 -0.000000 -0.000002
0.070249 0.016688 0.018501 -0.000002 0.000001 0.000003
0.069905 0.012552 0.095843 0.000001 0.000000 0.000003
0.078642 0.013914 0.025864 -0.000002 0.000000 0.000002
0.080037 0.020320 0.089927 0.000002 0.000002 0.000003
0.054906 0.022893 0.099743 0.000000 0.000003 0.000003
0.029764 0.019334 0.018493 0.000002 0.000002 0.000003
0.050765 0.002253 0.087454 -0.000000 -0.000003 -0.000003
0.029180 0.023907 0.081153 0.000002 0.000003 -0.000003
0.069239 0.025000 0.093127 0.000001 0.000003 0.000002
0.071456 0.001989 0.004893 0.000001 -0.000003 -0.000003
0.046221 0.018992 0.099802 -0.000000 0.000002 0.000003
0.063249 0.001996 0.098143 0.000001 -0.000003 0.000003
0.097559 0.000000 0.041806 0.000002 -0.000003 -0.000000
0.006488 0.025000 0.051328 0.000000 0.000003 -0.000000
0.099786 0.016674 0.045911 0.000003 0.000001 -0.000000
0.045795 0.018616 0.000220 -0.000000 0.000001 -0.000003
0.023869 0.000000 0.020023 0.000001 -0.000003 0.000002
0.002611 0.023564 0.034124 -0.000003 0.000003 -0.000001
0.002257 0.018431 0.035258 -0.000003 0.000001 -0.000001
0.087414 0.020504 0.048579 -0.000003 0.000002 0.000000
0.044683 0.018050 0.000288 -0.000000 0.000001 -0.000003
0.099742 0.015271 0.045079 0.000003 0.000001 -0.000000
0.085849 0.000000 0.064642 -0.000002 -0.000003 -0.000001
0.042414 0.025000 0.009457 0.000000 0.000003 0.000001
0.013348 0.010698 0.042343 0.000003 -0.000000 0.000001
0.033540 0.014513 0.016360 0.000001 0.000001 0.000003
0.060555 0.022860 0.014082 -0.000001 0.000003 0.000003
0.025924 0.019288 0.006228 -0.000002 0.000002 -0.000003
0.000325 0.002238 0.044452 -0.000003 -0.000002 -0.000000
0.099952 0.020285 0.049077 0.000003 0.000002 -0.000000
0.012748 0.003216 0.054105 0.000003 -0.000002 -0.000000
0.021188 0.003694 0.090826 -0.000002 -0.000002 0.000003
0.087291 0.012009 0.053448 -0.000003 -0.000000 -0.000000
0.086961 0.025000 0.028765 -0.000000 0.000003 0.000000
0.012637 0.022473 0.052264 0.000003 0.000003 -0.000000
0.020910 0.000265 0.026436 0.000002 -0.000003 0.000002
0.038405 0.014642 0.001414 -0.000001 0.000001 -0.000003
0.077589 0.018580 0.075347 -0.000002 0.000002 -0.000002
0.069706 0.010594 0.004081 0.000001 -0.000000 -0.000003
0.085153 0.020794 0.085461 0.000002 0.000002 0.000002
0.063097 0.000000 0.086486 -0.000001 -0.000003 -0.000002
0.087528 0.000000 0.048146 -0.000003 -0.000003 0.000000
0.055657 0.024296 0.087018 -0.000000 0.000003 -0.000003
0.068158 0.018847 0.096514 0.000001 0.000002 0.000003
0.098757 0.018100 0.039043 0.000003 0.000001 -0.000001
0.066240 0.023621 0.016261 -0.000001 0.000003 0.000003
0.006581 0.004992 0.025230 -0.000003 -0.000002 -0.000002
0.014420 0.009235 0.038362 0.000003 -0.000001 0.000001
0.025224 0.025000 0.012849 -0.000000 0.000003 -0.000000
0.081109 0.000000 0.026381 -0.000002 -0.000003 0.000001
0.020885 0.012920 0.026468 0.000002 0.000000 0.000002
0.055889 0.007015 0.099621 0.000000 -0.000001 0.000003
0.073486 0.006026 0.005927 0.000001 -0.000002 -0.000003
0.013500 0.025000 0.077877 -0.000001 0.000003 0.000001
0.020976 0.024333 0.009312 -0.000002 0.000003 -0.000003
0.018683 0.015536 0.029450 0.000003 0.000001 0.000002
0.005824 0.000000 0.052079 -0.000000 -0.000003 0.000000
0.003132 0.018117 0.032766 -0.000003 0.000001 -0.000001
0.019508 0.024218 0.071775 0.000003 0.000003 -0.000002
0.070072 0.025000 0.018211 -0.000002 0.000003 0.000003
0.001376 0.000000 0.055720 -0.000003 -0.000003 0.000000
0.078203 0.000000 0.017816 -0.000000 -0.000003 0.000000
0.070474 0.014660 0.095608 0.000001 0.000001 0.000003
0.095067 0.025000 0.048580 0.000001 0.000003 0.000000
0.090563 0.025000 0.033134 0.000000 0.000003 -0.000000
0.064045 0.018456 0.002071 0.000001 0.000001 -0.000003
0.056881 0.004764 0.099464 0.000000 -0.000002 0.000003
0.099332 0.016619 0.042285 0.000003 0.000001 -0.000000
0.068149 0.001941 0.096517 0.000001 -0.000003 0.000003
0.023908 0.004120 0.092592 -0.000002 -0.000002 0.000003
0.084598 0.000955 0.035669 -0.000003 -0.000003 0.000001
0.093699 0.006376 0.025781 0.000003 -0.000001 -0.000002
0.083942 0.025000 0.072161 -0.000001 0.000003 -0.000001
0.008907 0.000000 0.068669 -0.000001 -0.000003 0.000000
0.031229 0.024874 0.082392 0.000002 0.000003 -0.000003
0.084253 0.020162 0.065098 -0.000003 0.000002 -0.000001
0.004016 0.018990 0.030463 -0.000003 0.000002 -0.000001
0.076866 0.000000 0.009037 0.000001 -0.000003 -0.000002
0.002475 0.000000 0.054556 -0.000002 -0.000003 0.000000
0.064016 0.016424 0.084740 -0.000001 0.000001 -0.000003
0.089277 0.020510 0.019161 0.000002 0.000002 -0.000002
0.084401 0.025000 0.019263 0.000001 0.000003 -0.000001
0.005445 0.015379 0.072539 -0.000003 0.000001 0.000001
0.008676 0.009301 0.078045 -0.000003 -0.000001 0.000002
0.008954 0.000000 0.049346 0.000001 -0.000003 0.000000
0.023713 0.020244 0.076649 0.000002 0.000002 -0.000002
0.081359 0.004892 0.011144 0.000002 -0.000002 -0.000002
0.080721 0.021380 0.028518 -0.000003 0.000002 0.000002
0.025504 0.021249 0.078360 0.000002 0.000002 -0.000002
0.041887 0.000000 0.005024 -0.000000 -0.000003 -0.000001
0.099924 0.014861 0.051454 0.000003 0.000001 0.000000
0.026338 0.011226 0.079013 0.000002 -0.000000 -0.000002
0.095242 0.002621 0.028808 0.000003 -0.000002 -0.000001
0.043417 0.000000 0.092104 0.000000 -0.000003 -0.000000
0.054243 0.000000 0.009755 -0.000000 -0.000003 0.000002
0.008328 0.025000 0.041666 0.000001 0.000003 0.000000
0.085377 0.003620 0.037710 -0.000003 -0.000002 0.000001
0.012538 0.013918 0.049370 0.000003 0.000000 0.000000
0.094209 0.001126 0.026782 0.000003 -0.000003 -0.000001
0.015770 0.019217 0.034851 0.000003 0.000002 0.000001
0.098232 0.025000 0.046102 0.000002 0.000003 -0.000000
0.013781 0.009467 0.059588 0.000003 -0.000001 -0.000001
0.088741 0.000000 0.070867 0.000000 -0.000003 0.000000
0.014459 0.016985 0.038237 0.000003 0.000001 0.000001
0.012556 0.018122 0.049068 0.000003 0.000001 0.000000
0.039149 0.004458 0.014174 0.000001 -0.000002 0.000003
0.055037 0.021131 0.099736 0.000000 0.000002 0.000003
0.038099 0.025000 0.013045 0.000001 0.000003 0.000002
0.033415 0.020503 0.083583 0.000001 0.000002 -0.000003
0.046887 0.013034 0.087312 0.000000 0.000000 -0.000003
0.014901 0.025000 0.029613 0.000001 0.000003 0.000001
0.069818 0.009695 0.004124 0.000001 -0.000001 -0.000003
0.004932 0.021515 0.028468 -0.000003 0.000002 -0.000001
0.001657 0.000000 0.043873 -0.000003 -0.000003 -0.000000
0.000223 0.004387 0.054248 -0.000003 -0.000002 0.000000
0.012528 0.024801 0.050469 0.000003 0.000003 -0.000000
0.021402 0.000000 0.080504 0.000001 -0.000003 -0.000001
0.025598 0.000000 0.082201 0.000001 -0.000003 -0.000001
0.094014 0.015166 0.073601 0.000003 0.000001 0.000001
0.099859 0.014583 0.052689 0.000003 0.000001 0.000000
0.013483 0.018503 0.058392 0.000003 0.000002 -0.000001
0.031053 0.025000 0.014029 0.000001 0.000003 0.000001
0.029219 0.001349 0.018823 0.000002 -0.000003 0.000003
0.026931 0.025000 0.080799 0.000002 0.000003 -0.000002
0.012728 0.016294 0.053772 0.000003 0.000001 -0.000000
0.011097 0.025000 0.071119 -0.000000 0.000003 0.000000
0.013260 0.025000 0.061383 0.000002 0.000003 -0.000001
0.087154 0.021266 0.054918 -0.000003 0.000002 -0.000000
0.036720 0.000000 0.013240 0.000001 -0.000003 0.000002
0.076425 0.009843 0.092376 0.000002 -0.000001 0.000003
0.025811 0.018667 0.078601 0.000002 0.000002 -0.000002
0.008487 0.000000 0.025241 -0.000002 -0.000003 -0.000001
0.059290 0.016380 0.099082 0.000001 0.000001 0.000003
0.024599 0.011499 0.077536 0.000002 -0.000000 -0.000002
0.001148 0.000000 0.041388 -0.000003 -0.000003 -0.000001
0.014541 0.025000 0.022776 -0.000000 0.000003 -0.000000
0.052509 0.024692 0.012652 -0.000000 0.000003 0.000003
0.087379 0.009221 0.048002 -0.000003 -0.000001 0.000000
0.035719 0.009401 0.097866 -0.000001 -0.000001 0.000003
0.087394 0.020765 0.016836 0.000002 0.000002 -0.000002
0.003381 0.025000 0.057034 -0.000002 0.000003 0.000000
0.034082 0.000565 0.002627 -0.000001 -0.000003 -0.000003
0.002247 0.013602 0.064705 -0.000003 0.000000 0.000001
0.092635 0.025000 0.027616 0.000002 0.000003 -0.000001
0.026596 0.011914 0.005885 -0.000001 -0.000000 -0.000003
0.011709 0.000000 0.045030 0.000003 -0.000003 0.000000
0.078426 0.025000 0.012826 0.000001 0.000003 -0.000001
0.030835 0.014615 0.003873 -0.000001 0.000001 -0.000003
0.096421 0.004414 0.031602 0.000003 -0.000002 -0.000001
0.004101 0.002917 0.069760 -0.000003 -0.000002 0.000001
0.074565 0.012573 0.021694 -0.000002 0.000000 0.000002
0.003622 0.000236 0.031489 -0.000003 -0.000003 -0.000001
0.082546 0.000000 0.076620 -0.000001 -0.000003 -0.000001
0.029469 0.016445 0.081328 0.000002 0.000001 -0.000003
0.060917 0.009429 0.014195 -0.000001 -0.000001 0.000003
0.097918 0.008185 0.064087 0.000003 -0.000001 0.000001
0.017421 0.001118 0.012132 -0.000002 -0.000003 -0.000002
0.023623 0.022931 0.023441 0.000002 0.000003 0.000002
0.098738 0.006758 0.061029 0.000003 -0.000001 0.000001
0.090623 0.000000 0.060805 -0.000001 -0.000003 -0.000000
0.055221 0.020813 0.000274 0.000000 0.000002 -0.000003
0.032199 0.017754 0.003349 -0.000001 0.000001 -0.000003
0.022655 0.003429 0.024408 0.000002 -0.000002 0.000002
0.067159 0.000000 0.096732 0.000001 -0.000003 0.000003
0.060246 0.024955 0.098931 0.000001 0.000003 0.000003
0.032134 0.022530 0.082939 0.000001 0.000003 -0.000003
0.099793 0.007567 0.046058 0.000003 -0.000001 -0.000000
0.014348 0.025000 0.082548 -0.000002 0.000003 0.000002
0.096161 0.006131 0.030924 0.000003 -0.000002 -0.000001
0.013851 0.013347 0.059811 0.000003 0.000000 -0.000001
0.051704 0.014997 0.099911 0.000000 0.000001 0.000003
0.098433 0.008031 0.062166 0.000003 -0.000001 0.000001
0.074298 0.015158 0.021485 -0.000002 0.000001 0.000002
0.071704 0.006909 0.019453 -0.000002 -0.000001 0.000003
0.011593 0.016548 0.081913 -0.000002 0.000001 0.000002
0.088175 0.025000 0.028925 -0.000000 0.000003 -0.000000
0.039077 0.004102 0.085803 0.000001 -0.000002 -0.000003
0.032674 0.016833 0.003167 -0.000001 0.000001 -0.000003
0.028529 0.000000 0.081341 0.000002 -0.000003 -0.000002
0.059265 0.000000 0.091853 -0.000000 -0.000003 -0.000000
0.006843 0.014389 0.024778 -0.000003 0.000000 -0.000002
0.087401 0.009458 0.051633 -0.000003 -0.000001 -0.000000
0.014914 0.018349 0.014472 -0.000002 0.000001 -0.000002
0.055567 0.022888 0.099672 0.000000 0.000003 0.000003
0.038979 0.007089 0.001260 -0.000001 -0.000001 -0.000003
0.075517 0.021664 0.007034 0.000002 0.000002 -0.000003
0.059906 0.019068 0.013880 -0.000001 0.000002 0.000003
0.086454 0.013435 0.084159 0.000002 0.000000 0.000002
0.004515 0.009542 0.029287 -0.000003 -0.000001 -0.000001
0.073172 0.022877 0.020603 -0.000002 0.000003 0.000002
0.040974 0.011610 0.086394 0.000001 -0.000000 -0.000003
0.005834 0.015713 0.073303 -0.000003 0.000001 0.000001
0.051508 0.025000 0.088406 -0.000000 0.000003 -0.000003
0.071487 0.000000 0.093664 0.000001 -0.000003 0.000002
0.083774 0.004865 0.066161 -0.000003 -0.000002 -0.000001
0.088352 0.014421 0.018019 0.000002 0.000000 -0.000002
0.039853 0.000000 0.096957 -0.000000 -0.000003 0.000002
0.036922 0.014973 0.085132 0.000001 0.000001 -0.000003
0.014995 0.010861 0.036574 0.000003 -0.000000 0.000001
0.008860 0.020099 0.021672 -0.000003 0.000002 -0.000002
0.018749 0.025000 0.025015 0.000001 0.000003 0.000001
0.064500 0.001495 0.084522 -0.000001 -0.000003 -0.000003
0.085918 0.001110 0.039446 -0.000003 -0.000003 0.000001
0.070922 0.025000 0.086745 -0.000000 0.000003 -0.000001
0.075705 0.025000 0.088380 0.000001 0.000003 0.000001
0.009877 0.024896 0.020206 -0.000003 0.000003 -0.000002
0.054446 0.006812 0.087231 -0.000000 -0.000001 -0.000003
0.023833 0.007911 0.076769 0.000002 -0.000001 -0.000002
0.084496 0.000454 0.035442 -0.000003 -0.000003 0.000001
0.072454 0.000000 0.088207 0.000000 -0.000003 0.000000
0.098292 0.000000 0.044263 0.000002 -0.000003 -0.000000
0.089608 0.000000 0.068336 -0.000000 -0.000003 -0.000000
0.088242 0.004770 0.017883 0.000002 -0.000002 -0.000002
0.093462 0.025000 0.045425 -0.000000 0.000003 0.000000
0.050390 0.008027 0.099980 0.000000 -0.000001 0.000003
0.000839 0.002285 0.058797 -0.000003 -0.000002 0.000001
0.027846 0.000000 0.090879 -0.000001 -0.000003 0.000001
0.073722 0.003752 0.078966 -0.000002 -0.000002 -0.000002
0.088911 0.000000 0.027721 0.000000 -0.000003 -0.000000
0.028694 0.015025 0.080859 0.000002 0.000001 -0.000003
0.091833 0.020190 0.022739 0.000003 0.000002 -0.000002
0.047142 0.006756 0.099850 -0.000000 -0.000001 0.000003
0.001248 0.025000 0.046345 -0.000003 0.000003 -0.000000
0.078944 0.019923 0.009260 0.000002 0.000002 -0.000003
0.087128 0.017479 0.044941 -0.000003 0.000001 0.000000
0.012828 0.014658 0.045182 0.000003 0.000001 0.000000
0.047573 0.015315 0.012647 0.000000 0.000001 0.000003
0.091474 0.000000 0.033495 0.000000 -0.000003 -0.000000
0.054141 0.025000 0.098504 0.000000 0.000003 0.000002
0.005345 0.000000 0.052806 -0.000001 -0.000003 0.000000
0.079544 0.025000 0.086942 0.000001 0.000003 0.000001
0.003100 0.000920 0.032850 -0.000003 -0.000003 -0.000001
0.013658 0.017458 0.059193 0.000003 0.000001 -0.000001
0.015279 0.002560 0.035941 0.000003 -0.000003 0.000001
0.061321 0.009712 0.001341 0.000001 -0.000001 -0.000003
0.020753 0.007191 0.090543 -0.000002 -0.000001 0.000003
0.064764 0.012179 0.002263 0.000001 -0.000000 -0.000003
0.091587 0.025000 0.058680 -0.000001 0.000003 -0.000000
0.000904 0.000231 0.059207 -0.000003 -0.000003 0.000001
0.001443 0.019319 0.061705 -0.000003 0.000002 0.000001
0.029831 0.020637 0.095742 -0.000001 0.000002 0.000003
0.055646 0.016405 0.087020 -0.000000 0.000001 -0.000003
0.084343 0.025000 0.078384 0.000000 0.000003 0.000000
0.047039 0.022944 0.012679 0.000000 0.000003 0.000003
0.026981 0.025000 0.084818 0.000000 0.000003 -0.000001
0.064164 0.022918 0.002102 0.000001 0.000003 -0.000003
0.012587 0.024684 0.048566 0.000003 0.000003 0.000000
0.091370 0.014810 0.077973 0.000003 0.000001 0.000002
0.019988 0.025000 0.022541 0.000001 0.000003 0.000001
0.079531 0.008079 0.026998 -0.000002 -0.000001 0.000002
0.008285 0.025000 0.076214 -0.000002 0.000003 0.000001
0.000348 0.000835 0.044308 -0.000003 -0.000003 -0.000000
0.089693 0.000000 0.054977 -0.000002 -0.000003 -0.000000
0.031638 0.012472 0.003565 -0.000001 -0.000000 -0.000003
0.022438 0.013493 0.024625 0.000002 0.000000 0.000002
0.027339 0.001721 0.094493 -0.000001 -0.000003 0.000003
0.070512 0.007920 0.018660 -0.000002 -0.000001 0.000003
0.081725 0.022979 0.088560 0.000002 0.000003 0.000002
0.095192 0.016322 0.028712 0.000003 0.000001 -0.000001
0.042231 0.025000 0.089216 0.000000 0.000003 -0.000002
0.056327 0.000000 0.013035 -0.000001 -0.000003 0.000003
0.088466 0.000000 0.079437 0.000002 -0.000003 0.000001
0.080164 0.000226 0.089823 0.000002 -0.000003 0.000002
0.034024 0.008268 0.097351 -0.000001 -0.000001 0.000003
0.041215 0.016605 0.000838 -0.000001 0.000001 -0.000003
0.098763 0.005311 0.039065 0.000003 -0.000002 -0.000001
0.018915 0.011870 0.010922 -0.000002 -0.000000 -0.000002
0.096890 0.025000 0.048910 0.000002 0.000003 0.000000
0.078653 0.014696 0.090929 0.000002 0.000001 0.000003
0.038881 0.025000 0.095884 -0.000000 0.000003 0.000002
0.058968 0.007845 0.086412 -0.000001 -0.000001 -0.000003
0.042066 0.000000 0.095892 -0.000000 -0.000003 0.000001
0.039934 0.006268 0.086070 0.000001 -0.000002 -0.000003
0.013460 0.025000 0.036499 0.000002 0.000003 0.000001
0.000073 0.013349 0.048599 -0.000003 0.000000 -0.000000
0.044932 0.017246 0.087126 0.000000 0.000001 -0.000003
0.016135 0.025000 0.079305 -0.000000 0.000003 0.000000
0.096291 0.014677 0.031263 0.000003 0.000001 -0.000001
0.072068 0.000000 0.082779 -0.000001 -0.000003 -0.000002
0.028572 0.009241 0.080764 0.000002 -0.000001 -0.000003
0.069045 0.012057 0.017774 -0.000002 -0.000000 0.000003
0.026645 0.012185 0.079254 0.000002 -0.000000 -0.000002
0.073297 0.003176 0.094169 0.000001 -0.000002 0.000003
0.006777 0.022900 0.024879 -0.000003 0.000003 -0.000002
0.085433 0.000000 0.062205 -0.000003 -0.000003 -0.000001
0.033521 0.008354 0.083631 0.000001 -0.000001 -0.000003
0.003645 0.016580 0.031428 -0.000003 0.000001 -0.000001
0.087451 0.007240 0.050815 -0.000003 -0.000001 -0.000000
0.058009 0.017336 0.000715 0.000001 0.000001 -0.000003
0.032580 0.018511 0.003203 -0.000001 0.000001 -0.000003
0.001318 0.004553 0.061238 -0.000003 -0.000002 0.000001
0.091593 0.002663 0.077631 0.000003 -0.000002 0.000002
0.088352 0.025000 0.039227 -0.000002 0.000003 0.000001
0.081327 0.008581 0.070533 -0.000003 -0.000001 -0.000002
0.006479 0.025000 0.056503 -0.000000 0.000003 -0.000000
0.069676 0.000294 0.018155 -0.000002 -0.000003 0.000003
0.024755 0.025000 0.016433 0.000001 0.000003 0.000001
0.005620 0.001975 0.072882 -0.000003 -0.000003 0.000001
0.019783 0.000000 0.077291 0.000001 -0.000003 -0.000001
0.037597 0.000159 0.001630 -0.000001 -0.000003 -0.000003
0.098279 0.023077 0.062740 0.000003 0.000003 0.000001
0.099257 0.008737 0.058189 0.000003 -0.000001 0.000001
0.052945 0.023951 0.087322 -0.000000 0.000003 -0.000003
0.097224 0.025000 0.056015 0.000002 0.000003 0.000000
0.082392 0.025000 0.022725 -0.000000 0.000003 0.000001
0.097077 0.011197 0.066689 0.000003 -0.000000 0.000001
0.053763 0.022314 0.087272 -0.000000 0.000003 -0.000003
0.095404 0.025000 0.062275 0.000002 0.000003 0.000000
0.036206 0.000000 0.097205 -0.000001 -0.000003 0.000003
0.046213 0.000000 0.006447 -0.000000 -0.000003 -0.000000
0.093137 0.023445 0.075253 0.000003 0.000003 0.000002
0.073144 0.010976 0.094247 0.000001 -0.000000 0.000003
0.008706 0.000000 0.030114 -0.000001 -0.000003 -0.000000
0.074761 0.025000 0.016538 -0.000001 0.000003 0.000001
0.076602 0.011826 0.023666 -0.000002 -0.000000 0.000002
0.088594 0.025000 0.060782 -0.000002 0.000003 -0.000000
0.013769 0.000708 0.059550 0.000003 -0.000003 -0.000001
0.065612 0.012748 0.084022 -0.000001 0.000000 -0.000003
0.080596 0.014779 0.010526 0.000002 0.000001 -0.000002
0.003063 0.023192 0.067054 -0.000003 0.000003 0.000001
0.070818 0.001027 0.018845 -0.000002 -0.000003 0.000003
0.063374 0.020501 0.085029 -0.000001 0.000002 -0.000003
0.060216 0.025000 0.086516 -0.000001 0.000003 -0.000003
0.096472 0.025000 0.031890 0.000003 0.000003 -0.000001
0.036322 0.000000 0.085258 0.000001 -0.000003 -0.000003
0.072681 0.000000 0.011888 0.000000 -0.000003 -0.000000
0.097022 0.014097 0.033166 0.000003 0.000000 -0.000001
0.089356 0.025000 0.038233 -0.000001 0.000003 0.000001
0.051243 0.001706 0.000065 0.000000 -0.000003 -0.000003
0.038694 0.020811 0.001337 -0.000001 0.000002 -0.000003
0.011702 0.000000 0.072024 -0.000000 -0.000003 0.000000
0.083448 0.024849 0.066885 -0.000003 0.000003 -0.000001
0.093309 0.004352 0.074985 0.000003 -0.000002 0.000002
0.088955 0.025000 0.069111 -0.000000 0.000003 -0.000000
0.007682 0.000000 0.026849 -0.000002 -0.000003 -0.000001
0.045391 0.011214 0.012790 0.000000 -0.000000 0.000003
0.096358 0.000000 0.040724 0.000002 -0.000003 -0.000000
0.047924 0.025000 0.001523 -0.000000 0.000003 -0.000002
0.085818 0.014975 0.060876 -0.000003 0.000001 -0.000001
0.038351 0.000000 0.002383 -0.000001 -0.000003 -0.000003
0.080298 0.000000 0.078905 -0.000001 -0.000003 -0.000001
0.033650 0.000000 0.090584 -0.000000 -0.000003 -0.000000
0.058679 0.002565 0.086464 -0.000001 -0.000003 -0.000003
0.098514 0.017767 0.061865 0.000003 0.000001 0.000001
0.084183 0.021432 0.065253 -0.000003 0.000002 -0.000001
0.052527 0.025000 0.004086 0.000000 0.000003 -0.000001
0.052663 0.025000 0.097736 0.000000 0.000003 0.000002
0.077829 0.019803 0.008536 0.000002 0.000002 -0.000003
0.016799 0.024494 0.067433 0.000003 0.000003 -0.000001
0.073901 0.008754 0.093861 0.000001 -0.000001 0.000003
0.012703 0.006826 0.053363 0.000003 -0.000001 -0.000000
0.015085 0.007062 0.063626 0.000003 -0.000001 -0.000001
0.029431 0.025000 0.004979 -0.000001 0.000003 -0.000003
0.038796 0.004424 0.098691 -0.000001 -0.000002 0.000003
0.024835 0.016510 0.093194 -0.000002 0.000001 0.000003
0.028018 0.017640 0.094839 -0.000001 0.000001 0.000003
0.029451 0.025000 0.092230 -0.000001 0.000003 0.000001
0.006011 0.018193 0.073650 -0.000003 0.000001 0.000001
0.002152 0.009903 0.064349 -0.000003 -0.000001 0.000001
0.090601 0.025000 0.074727 0.000002 0.000003 0.000001
0.046984 0.025000 0.007683 0.000000 0.000003 0.000001
0.068378 0.017097 0.003571 0.000001 0.000001 -0.000003
0.012693 0.000000 0.043080 0.000003 -0.000003 0.000001
0.026198 0.000000 0.085550 0.000000 -0.000003 -0.000000
0.092995 0.000000 0.054654 -0.000000 -0.000003 -0.000000
0.075929 0.025000 0.080222 -0.000001 0.000003 -0.000001
0.007432 0.001917 0.023871 -0.000003 -0.000003 -0.000002
0.029890 0.024474 0.095765 -0.000001 0.000003 0.000003
0.083415 0.015854 0.066959 -0.000003 0.000001 -0.000001
0.059101 0.025000 0.093424 -0.000000 0.000003 0.000000
0.011350 0.000000 0.022124 -0.000002 -0.000003 -0.000001
0.060945 0.021131 0.014204 -0.000001 0.000002 0.000003
0.059691 0.018661 0.013813 -0.000001 0.000002 0.000003
0.067291 0.025000 0.013601 -0.000001 0.000003 0.000002
0.054321 0.018897 0.087239 -0.000000 0.000002 -0.000003
0.037403 0.000634 0.085282 0.000001 -0.000003 -0.000003
0.049750 0.013654 0.099987 -0.000000 0.000000 0.000003
0.075258 0.025000 0.081227 -0.000001 0.000003 -0.000001
0.020060 0.025000 0.018197 0.000000 0.000003 -0.000000
0.099592 0.021502 0.056072 0.000003 0.000002 0.000000
0.071600 0.016042 0.095033 0.000001 0.000001 0.000003
0.085911 0.016281 0.015297 0.000002 0.000001 -0.000002
0.072659 0.023114 0.079799 -0.000002 0.000003 -0.000002
0.059446 0.017833 0.013737 -0.000001 0.000001 0.000003
0.057345 0.012282 0.013291 -0.000001 -0.000000 0.000003
0.013370 0.021595 0.042225 0.000003 0.000002 0.000001
0.085869 0.025000 0.070209 -0.000001 0.000003 -0.000001
0.018650 0.020295 0.070494 0.000003 0.000002 -0.000002
0.046787 0.000000 0.005585 -0.000000 -0.000003 -0.000000
0.018002 0.008832 0.030576 0.000003 -0.000001 0.000002
0.084229 0.025000 0.032581 -0.000002 0.000003 0.000001
0.088924 0.017334 0.081274 0.000002 0.000001 0.000002
0.059662 0.017677 0.086196 -0.000001 0.000001 -0.000003
0.064759 0.025000 0.009027 -0.000000 0.000003 0.000000
0.099350 0.021443 0.057599 0.000003 0.000002 0.000000
0.006319 0.025000 0.040166 -0.000001 0.000003 -0.000000
0.080315 0.019488 0.028000 -0.000003 0.000002 0.000002
0.080192 0.017192 0.010199 0.000002 0.000001 -0.000002
0.041120 0.014084 0.099147 -0.000001 0.000000 0.000003
0.098359 0.002204 0.037558 0.000003 -0.000003 -0.000001
0.099533 0.013739 0.056445 0.000003 0.000000 0.000000
0.060724 0.016513 0.014135 -0.000001 0.000001 0.000003
0.032195 0.025000 0.010632 0.000000 0.000003 0.000000
0.072111 0.021214 0.019772 -0.000002 0.000002 0.000003
0.085579 0.013159 0.061641 -0.000003 0.000000 -0.000001
0.050356 0.007851 0.087478 -0.000000 -0.000001 -0.000003
0.058409 0.000000 0.098284 0.000000 -0.000003 0.000003
0.009609 0.025000 0.039866 0.000001 0.000003 0.000000
0.087378 0.016484 0.047986 -0.000003 0.000001 0.000000
0.077804 0.017247 0.024868 -0.000002 0.000001 0.000002
0.042620 0.025000 0.012687 0.000001 0.000003 0.000003
0.006181 0.000000 0.049953 -0.000000 -0.000003 0.000000
0.062180 0.000000 0.002556 0.000001 -0.000003 -0.000003
0.002921 0.000437 0.066684 -0.000003 -0.000003 0.000001
0.089992 0.013423 0.079956 0.000003 0.000000 0.000002
0.043679 0.005447 0.000447 -0.000000 -0.000002 -0.000003
0.085615 0.011293 0.038472 -0.000003 -0.000000 0.000001
0.044056 0.000000 0.002676 -0.000000 -0.000003 -0.000002
0.084194 0.021590 0.034772 -0.000003 0.000002 0.000001
0.052446 0.012173 0.087352 -0.000000 -0.000000 -0.000003
0.013430 0.008998 0.015956 -0.000002 -0.000001 -0.000002
0.086185 0.014096 0.059698 -0.000003 0.000000 -0.000001
0.024601 0.021262 0.022462 0.000002 0.000002 0.000002
0.003492 0.013912 0.068173 -0.000003 0.000000 0.000001
0.088933 0.005793 0.018737 0.000002 -0.000002 -0.000002
0.029805 0.023869 0.081531 0.000002 0.000003 -0.000003
0.056290 0.000000 0.088062 -0.000000 -0.000003 -0.000003
0.000707 0.024108 0.057962 -0.000003 0.000003 0.000000
0.065440 0.025000 0.088999 -0.000000 0.000003 -0.000001
0.031078 0.009400 0.017699 0.000002 -0.000001 0.000003
0.059032 0.008824 0.000877 0.000001 -0.000001 -0.000003
0.091997 0.009761 0.022991 0.000003 -0.000001 -0.000002
0.007606 0.017150 0.076397 -0.000003 0.000001 0.000002
0.043129 0.016596 0.000534 -0.000000 0.000001 -0.000003
0.046861 0.025000 0.009053 0.000000 0.000003 0.000001
0.077125 0.013158 0.091922 0.000002 0.000000 0.000003
0.031781 0.000515 0.096490 -0.000001 -0.000003 0.000003
0.083379 0.025000 0.077418 -0.000000 0.000003 -0.000000
0.040303 0.011526 0.086185 0.000001 -0.000000 -0.000003
0.008040 0.025000 0.055434 0.000001 0.000003 -0.000000
0.036146 0.016962 0.002019 -0.000001 0.000001 -0.000003
0.031746 0.021925 0.096477 -0.000001 0.000002 0.000003
0.091158 0.019900 0.078301 0.000003 0.000002 0.000002
0.061670 0.004290 0.085570 -0.000001 -0.000002 -0.000003
0.063573 0.025000 0.089317 -0.000000 0.000003 -0.000001
0.025075 0.007147 0.078011 0.000002 -0.000001 -0.000002
0.027333 0.000000 0.016068 0.000001 -0.000003 0.000001
0.080072 0.015662 0.072311 -0.000003 0.000001 -0.000002
0.087107 0.003778 0.055171 -0.000003 -0.000002 -0.000000
0.068366 0.025000 0.015858 -0.000001 0.000003 0.000002
0.064100 0.014089 0.097915 0.000001 0.000000 0.000003
0.060514 0.012821 0.085930 -0.000001 0.000000 -0.000003
0.048637 0.015018 0.000071 -0.000000 0.000001 -0.000003
0.041747 0.025000 0.092427 -0.000000 0.000003 -0.000000
0.018301 0.017891 0.011419 -0.000002 0.000001 -0.000002
0.083737 0.000000 0.079530 0.000000 -0.000003 0.000000
0.076973 0.013954 0.007980 0.000002 0.000000 -0.000003
0.073843 0.017040 0.093891 0.000001 0.000001 0.000003
0.075762 0.007658 0.092806 0.000002 -0.000001 0.000003
0.019689 0.000000 0.020530 0.000000 -0.000003 0.000001
0.087333 0.008639 0.047234 -0.000003 -0.000001 0.000000
0.002793 0.018599 0.066351 -0.000003 0.000001 0.000001
0.085459 0.004977 0.062028 -0.000003 -0.000002 -0.000001
0.027574 0.021587 0.079982 0.000002 0.000002 -0.000003
0.082780 0.001636 0.012295 0.000002 -0.000003 -0.000002
0.089490 0.025000 0.019652 0.000002 0.000003 -0.000002
0.094726 0.017331 0.027796 0.000003 0.000001 -0.000001
0.024003 0.011587 0.023061 0.000002 -0.000000 0.000002
0.060256 0.005969 0.013989 -0.000001 -0.000002 0.000003
0.005318 0.025000 0.068412 -0.000002 0.000003 0.000001
0.072500 0.025000 0.006004 0.000001 0.000003 -0.000003
0.045059 0.016631 0.000259 -0.000000 0.000001 -0.000003
0.086827 0.005007 0.056703 -0.000003 -0.000002 -0.000001
0.097631 0.014815 0.065161 0.000003 0.000001 0.000001
0.058211 0.014972 0.099253 0.000001 0.000001 0.000003
0.034755 0.000580 0.002392 -0.000001 -0.000003 -0.000003
0.041286 0.015718 0.099174 -0.000001 0.000001 0.000003
0.016579 0.009192 0.033054 0.000003 -0.000001 0.000001
0.014478 0.008366 0.014908 -0.000002 -0.000001 -0.000002
0.015698 0.012218 0.086312 -0.000002 -0.000000 0.000002
0.001463 0.000000 0.047684 -0.000002 -0.000003 -0.000000
0.017595 0.000000 0.083429 -0.000001 -0.000003 0.000001
0.041267 0.023083 0.013545 0.000001 0.000003 0.000003
0.011938 0.000000 0.061710 0.000002 -0.000003 -0.000001
0.000014 0.020586 0.049737 -0.000003 0.000002 -0.000000
0.085592 0.025000 0.027139 -0.000001 0.000003 0.000000
0.051339 0.019743 0.012581 -0.000000 0.000002 0.000003
0.086243 0.010780 0.059510 -0.000003 -0.000000 -0.000001
0.071634 0.005747 0.095016 0.000001 -0.000002 0.000003
0.052158 0.000000 0.097373 0.000000 -0.000003 0.000002
0.055480 0.012194 0.000314 0.000000 -0.000000 -0.000003
0.042913 0.010857 0.086756 0.000001 -0.000000 -0.000003
0.016501 0.000000 0.077467 0.000000 -0.000003 0.000000
0.038498 0.011703 0.085623 0.000001 -0.000000 -0.000003
0.014696 0.005934 0.037476 0.000003 -0.000002 0.000001
0.058833 0.023399 0.099155 0.000001 0.000003 0.000003
0.099634 0.025000 0.054897 0.000003 0.000003 0.000000
0.086611 0.021915 0.057877 -0.000003 0.000002 -0.000001
0.018900 0.023688 0.029091 0.000003 0.000003 0.000002
0.030619 0.000862 0.082023 0.000002 -0.000003 -0.000003
0.084596 0.019387 0.035665 -0.000003 0.000002 0.000001
0.083831 0.006288 0.033965 -0.000003 -0.000002 0.000001
0.041574 0.005195 0.000781 -0.000001 -0.000002 -0.000003
0.031660 0.000000 0.009325 -0.000000 -0.000003 -0.000000
0.003916 0.018351 0.030722 -0.000003 0.000001 -0.000001
0.071276 0.007092 0.019122 -0.000002 -0.000001 0.000003
0.060868 0.023952 0.098781 0.000001 0.000003 0.000003
0.098613 0.005530 0.061494 0.000003 -0.000002 0.000001
0.077216 0.005831 0.008138 0.000002 -0.000002 -0.000003
0.031019 0.017387 0.082265 0.000002 0.000001 -0.000003
0.023086 0.016148 0.092059 -0.000002 0.000001 0.000003
0.056113 0.002022 0.099586 0.000000 -0.000003 0.000003
0.016027 0.025000 0.022700 0.000000 0.000003 -0.000000
0.010995 0.000000 0.053890 0.000002 -0.000003 -0.000000
0.044842 0.010438 0.000270 -0.000000 -0.000001 -0.000003
0.099927 0.006241 0.048602 0.000003 -0.000002 -0.000000
0.099496 0.002113 0.043319 0.000003 -0.000003 -0.000000
0.068909 0.025000 0.088115 -0.000000 0.000003 -0.000000
0.065505 0.008139 0.084070 -0.000001 -0.000001 -0.000003
0.098314 0.011587 0.062609 0.000003 -0.000000 0.000001
0.015119 0.018100 0.063703 0.000003 0.000001 -0.000001
0.001072 0.015027 0.060264 -0.000003 0.000001 0.000001
0.000390 0.001056 0.055960 -0.000003 -0.000003 0.000000
0.091293 0.025000 0.067476 0.000000 0.000003 0.000000
0.071668 0.005181 0.094999 0.000001 -0.000002 0.000003
0.084330 0.015171 0.086284 0.000002 0.000001 0.000002
0.020316 0.000000 0.078314 0.000001 -0.000003 -0.000001
0.087280 0.015146 0.053640 -0.000003 0.000001 -0.000000
0.091796 0.000000 0.076282 0.000002 -0.000003 0.000002
0.091402 0.000000 0.062842 -0.000000 -0.000003 -0.000000
0.041460 0.003153 0.013510 0.000001 -0.000002 0.000003
0.088802 0.000000 0.034096 -0.000001 -0.000003 0.000000
0.077477 0.001127 0.008307 0.000002 -0.000003 -0.000003
0.084608 0.000000 0.065715 -0.000003 -0.000003 -0.000001
0.002227 0.012135 0.064628 -0.000003 -0.000000 0.000001
0.048243 0.015551 0.000092 -0.000000 0.000001 -0.000003
0.000182 0.016599 0.046526 -0.000003 0.000001 -0.000000
0.016698 0.012673 0.012717 -0.000002 0.000000 -0.000002
0.002489 0.001035 0.065560 -0.000003 -0.000003 0.000001
0.099938 0.020209 0.048809 0.000003 0.000002 -0.000000
0.025441 0.000000 0.017808 0.000001 -0.000003 0.000001
0.076927 0.000000 0.088518 0.000001 -0.000003 0.000001
0.066702 0.013600 0.097073 0.000001 0.000000 0.000003
0.080008 0.000000 0.088715 0.000002 -0.000003 0.000002
0.022041 0.000000 0.021926 0.000001 -0.000003 0.000001
0.019638 0.022576 0.010337 -0.000002 0.000002 -0.000002
0.001902 0.018820 0.063415 -0.000003 0.000002 0.000001
0.013266 0.003756 0.057209 0.000003 -0.000002 -0.000001
0.006937 0.021181 0.024633 -0.000003 0.000002 -0.000002
0.073602 0.025000 0.009106 0.000001 0.000003 -0.000001
0.098518 0.003779 0.061848 0.000003 -0.000002 0.000001
0.033240 0.000000 0.011751 0.000000 -0.000003 0.000001
0.016207 0.023811 0.033881 0.000003 0.000003 0.000001
0.056356 0.021049 0.013110 -0.000001 0.000002 0.000003
0.038548 0.003430 0.014362 0.000001 -0.000002 0.000003
0.012596 0.009206 0.048416 0.000003 -0.000001 0.000000
0.034741 0.021638 0.002396 -0.000001 0.000002 -0.000003
0.099423 0.010804 0.042863 0.000003 -0.000000 -0.000000
0.008133 0.000000 0.024828 -0.000002 -0.000003 -0.000001
0.076980 0.013135 0.075957 -0.000002 0.000000 -0.000002
0.035724 0.025000 0.087594 0.000001 0.000003 -0.000002
0.001468 0.002548 0.038205 -0.000003 -0.000002 -0.000001
0.036269 0.017880 0.015132 0.000001 0.000001 0.000003
0.065806 0.006456 0.083934 -0.000001 -0.000002 -0.000003
0.083394 0.021659 0.087208 0.000002 0.000002 0.000002
0.099131 0.003824 0.058983 0.000003 -0.000002 0.000001
0.083536 0.002423 0.066690 -0.000003 -0.000003 -0.000001
0.036189 0.003264 0.002008 -0.000001 -0.000002 -0.000003
0.096053 0.000000 0.062490 0.000002 -0.000003 0.000000
0.007579 0.011146 0.023645 -0.000003 -0.000000 -0.000002
0.006188 0.025000 0.055457 -0.000000 0.000003 -0.000000
0.015269 0.025000 0.023821 0.000000 0.000003 -0.000000
0.058953 0.025000 0.004755 0.000000 0.000003 -0.000001
0.034158 0.013083 0.097403 -0.000001 0.000000 0.000003
0.022716 0.024320 0.091818 -0.000002 0.000003 0.000003
0.028734 0.010282 0.095204 -0.000001 -0.000001 0.000003
0.060393 0.021512 0.098908 0.000001 0.000002 0.000003
0.002154 0.025000 0.060799 -0.000003 0.000003 0.000001
0.023390 0.024827 0.007744 -0.000002 0.000003 -0.000003
0.032331 0.006253 0.003299 -0.000001 -0.000002 -0.000003
0.003417 0.018214 0.067977 -0.000003 0.000001 0.000001
0.041489 0.002306 0.086495 0.000001 -0.000003 -0.000003
0.073351 0.007834 0.094142 0.000001 -0.000001 0.000003
0.047469 0.025000 0.099743 -0.000000 0.000003 0.000003
0.076218 0.025000 0.012800 0.000001 0.000003 -0.000001
0.072372 0.017223 0.005359 0.000001 0.000001 -0.000003
0.010681 0.008489 0.080787 -0.000002 -0.000001 0.000002
0.012593 0.017197 0.051537 0.000003 0.000001 -0.000000
0.086680 0.015046 0.042497 -0.000003 0.000001 0.000001
0.012748 0.012134 0.054098 0.000003 -0.000000 -0.000000
0.086844 0.011757 0.016230 0.000002 -0.000000 -0.000002
0.060345 0.019945 0.098915 0.000001 0.000002 0.000003
0.060891 0.019308 0.085813 -0.000001 0.000002 -0.000003
0.000105 0.017014 0.051999 -0.000003 0.000001 0.000000
0.087323 0.009012 0.052923 -0.000003 -0.000001 -0.000000
0.067954 0.011945 0.003408 0.000001 -0.000000 -0.000003
0.062306 0.000000 0.094307 0.000000 -0.000003 0.000001
0.017329 0.025000 0.026506 0.000001 0.000003 0.000001
0.082329 0.016409 0.088070 0.000002 0.000001 0.000002
0.049057 0.024350 0.012557 0.000000 0.000003 0.000003
0.084803 0.000704 0.063876 -0.000003 -0.000003 -0.000001
0.097923 0.000032 0.064071 0.000003 -0.000003 0.000001
0.006139 0.025000 0.068068 -0.000002 0.000003 0.000001
0.073525 0.021532 0.005947 0.000001 0.000002 -0.000003
0.057118 0.000000 0.006100 -0.000000 -0.000003 -0.000000
0.077007 0.025000 0.087365 0.000001 0.000003 0.000001
0.066017 0.000663 0.097335 0.000001 -0.000003 0.000003
0.099277 0.006084 0.041937 0.000003 -0.000002 -0.000001
0.071493 0.002968 0.080712 -0.000002 -0.000002 -0.000003
0.027177 0.003359 0.079671 0.000002 -0.000002 -0.000002
0.085455 0.024189 0.037961 -0.000003 0.000003 0.000001
0.087327 0.012371 0.083247 0.000002 -0.000000 0.000002
0.018540 0.013662 0.088774 -0.000002 0.000000 0.000002
0.091428 0.021427 0.077885 0.000003 0.000002 0.000002
0.024774 0.025000 0.020743 0.000002 0.000003 0.000002
0.073317 0.010808 0.079283 -0.000002 -0.000000 -0.000002
0.026955 0.022899 0.079497 0.000002 0.000003 -0.000002
0.052512 0.000662 0.099868 0.000000 -0.000003 0.000003
0.000786 0.000000 0.049886 -0.000003 -0.000003 0.000000
0.038136 0.013294 0.001486 -0.000001 0.000000 -0.000003
0.087050 0.012598 0.016436 0.000002 0.000000 -0.000002
0.082501 0.011980 0.031409 -0.000003 -0.000000 0.000002
0.082992 0.000000 0.075883 -0.000001 -0.000003 -0.000001
0.015803 0.000000 0.030000 0.000002 -0.000003 0.000001
0.039720 0.019480 0.098926 -0.000001 0.000002 0.000003
0.095604 0.002603 0.070481 0.000003 -0.000002 0.000001
0.055161 0.022840 0.087109 -0.000000 0.000003 -0.000003
0.081804 0.018356 0.069743 -0.000003 0.000002 -0.000002
0.067097 0.000307 0.003079 0.000001 -0.000003 -0.000003
0.077720 0.025000 0.013713 0.000001 0.000003 -0.000001
0.028659 0.000000 0.018175 0.000001 -0.000003 0.000002
0.001052 0.007831 0.060138 -0.000003 -0.000001 0.000001
0.004788 0.000000 0.039123 -0.000001 -0.000003 -0.000000
0.027416 0.022040 0.094532 -0.000001 0.000002 0.000003
0.068330 0.015001 0.003552 0.000001 0.000001 -0.000003
0.005532 0.000000 0.052390 -0.000000 -0.000003 0.000000
0.042619 0.018184 0.099385 -0.000000 0.000001 0.000003
0.084350 0.002702 0.064883 -0.000003 -0.000003 -0.000001
0.013902 0.019734 0.059976 0.000003 0.000002 -0.000001
0.016990 0.025000 0.071493 0.000002 0.000003 -0.000001
0.098537 0.006533 0.061776 0.000003 -0.000001 0.000001
0.011602 0.006967 0.081924 -0.000002 -0.000001 0.000002
0.014972 0.011290 0.014415 -0.000002 -0.000000 -0.000002
0.094555 0.000000 0.053484 0.000001 -0.000003 -0.000000
0.002102 0.010435 0.064161 -0.000003 -0.000001 0.000001
0.013006 0.022635 0.044211 0.000003 0.000003 0.000000
0.024195 0.025000 0.078271 0.000002 0.000003 -0.000002
0.085842 0.009085 0.039203 -0.000003 -0.000001 0.000001
0.063156 0.000000 0.088853 -0.000000 -0.000003 -0.000001
0.056259 0.023191 0.013092 -0.000001 0.000003 0.000003
0.085263 0.016441 0.062655 -0.000003 0.000001 -0.000001
0.076808 0.000335 0.023872 -0.000002 -0.000003 0.000002
0.064324 0.006978 0.084601 -0.000001 -0.000001 -0.000003
0.088733 0.000000 0.025876 0.000001 -0.000003 -0.000001
0.017183 0.007674 0.068069 0.000003 -0.000001 -0.000002
0.059399 0.023316 0.099065 0.000001 0.000003 0.000003
0.080229 0.007208 0.089771 0.000002 -0.000001 0.000002
0.031189 0.007488 0.082368 0.000002 -0.000001 -0.000003
0.002028 0.022192 0.063888 -0.000003 0.000002 0.000001
0.063640 0.003240 0.084909 -0.000001 -0.000002 -0.000003
0.054423 0.013232 0.000232 0.000000 0.000000 -0.000003
0.097000 0.000000 0.039024 0.000002 -0.000003 -0.000001
0.094340 0.000000 0.037800 0.000001 -0.000003 -0.000000
0.055452 0.025000 0.090495 -0.000000 0.000003 -0.000001
0.083115 0.014102 0.032424 -0.000003 0.000000 0.000001
0.095728 0.000000 0.055648 0.000001 -0.000003 0.000000
0.085357 0.007838 0.085257 0.000002 -0.000001 0.000002
0.012765 0.012149 0.045616 0.000003 -0.000000 0.000000
0.069573 0.004637 0.095970 0.000001 -0.000002 0.000003
0.042164 0.005959 0.013381 0.000001 -0.000002 0.000003
0.076130 0.000000 0.018332 -0.000001 -0.000003 0.000001
0.064985 0.004148 0.084304 -0.000001 -0.000002 -0.000003
0.078778 0.017620 0.009152 0.000002 0.000001 -0.000003
0.012947 0.001294 0.083561 -0.000002 -0.000003 0.000002
0.083636 0.025000 0.067254 -0.000003 0.000003 -0.000001
0.080078 0.012496 0.072303 -0.000003 -0.000000 -0.000002
0.075242 0.025000 0.010523 0.000001 0.000003 -0.000001
0.084905 0.019433 0.063649 -0.000003 0.000002 -0.000001
0.052659 0.010243 0.000139 0.000000 -0.000001 -0.000003
0.009639 0.012451 0.079500 -0.000003 -0.000000 0.000002
0.009709 0.025000 0.040531 0.000001 0.000003 0.000000
0.086118 0.006827 0.040087 -0.000003 -0.000001 0.000001
0.062986 0.003324 0.001787 0.000001 -0.000002 -0.000003
0.003760 0.000000 0.059798 -0.000002 -0.000003 0.000000
0.072462 0.025000 0.014295 -0.000000 0.000003 0.000001
0.041260 0.006240 0.099170 -0.000001 -0.000002 0.000003
0.051554 0.011336 0.012594 -0.000000 -0.000000 0.000003
0.075326 0.000000 0.010153 0.000001 -0.000003 -0.000002
0.024958 0.000000 0.092065 -0.000001 -0.000003 0.000002
0.056992 0.000000 0.012753 -0.000001 -0.000003 0.000003
0.009796 0.025000 0.027092 -0.000001 0.000003 -0.000001
0.058577 0.000665 0.000805 0.000001 -0.000003 -0.000003
